6.9505728525 1.0000000000 0.2294897811
6.7252081036 1.0000000000 0.7176488701
7.0577505728 1.0000000000 0.7747031824
2.3546758219 1.0000000000 1.2156766122
7.4424073318 1.0000000000 0.4722611216
5.1974870898 1.0000000000 0.7886427311
7.2832322649 1.0000000000 1.3415197570
3.1860993071 1.0000000000 1.0183769014
5.1085391674 1.0000000000 0.6126189966
5.4596902466 1.0000000000 1.3724193190
5.8172686836 1.0000000000 1.0895062828
2.9606074113 1.0000000000 1.2197362263
1.8485960742 1.0000000000 1.4683766131
5.7718560983 1.0000000000 0.4391196404
3.5487617740 1.0000000000 1.0266878628
5.6697047517 1.0000000000 1.0246843058
6.5872633167 1.0000000000 1.1883028514
7.8468115172 1.0000000000 0.1127608781
7.0334645626 1.0000000000 1.3707157881
3.1844696248 1.0000000000 1.3582236745
3.0710182770 1.0000000000 1.2725603153
6.8747114426 1.0000000000 1.1491527223
7.2485706013 1.0000000000 0.5544533748
6.1097471243 1.0000000000 0.3432128745
2.4599417797 1.0000000000 1.2219196485
3.3769532123 1.0000000000 1.4056671289
1.3424051908 1.0000000000 1.4087315794
4.3236468750 1.0000000000 1.3055451457
4.6686530795 1.0000000000 1.4140016469
7.1758580114 1.0000000000 0.6660875187
6.9937153726 1.0000000000 0.2395618353
3.9572245931 1.0000000000 1.4921742602
2.6890230826 1.0000000000 1.0948711865
4.3079329039 1.0000000000 1.1677950282
3.7415210604 1.0000000000 1.4733940384
7.6967384220 1.0000000000 0.7900098854
6.9809907710 1.0000000000 0.3804866626
3.9860579836 1.0000000000 0.9861672976
7.6253578072 1.0000000000 0.4369108883
6.0300756800 1.0000000000 1.0200837747
4.9333226231 1.0000000000 1.1260957010
6.8819522245 1.0000000000 1.4563943247
6.6845112037 1.0000000000 1.0519933106
7.8481577235 1.0000000000 1.1990327003
7.4097332051 1.0000000000 0.6634111379
5.5411818430 1.0000000000 1.1649136628
6.6813951992 1.0000000000 0.6263981022
4.9935856236 1.0000000000 1.0442329468
4.9487867794 1.0000000000 0.7967591801
3.9675273758 1.0000000000 1.1784909361
5.4586235100 1.0000000000 0.7681280902
5.6617891806 1.0000000000 1.0900749542
7.7759879029 1.0000000000 0.9704791598
4.2794147806 1.0000000000 0.8587646646
7.6153092564 1.0000000000 0.2689515518
7.4586503728 1.0000000000 0.3567711633
7.3528959512 1.0000000000 0.2771637445
4.2957490375 1.0000000000 1.1188157095
7.3802645652 1.0000000000 1.3992904621
5.5441172920 1.0000000000 0.7140443866
6.7365351765 1.0000000000 1.1309375186
2.1320184576 1.0000000000 1.3288131457
6.1287043504 1.0000000000 0.6564804545
7.2118520461 1.0000000000 0.3527962182
7.3183492381 1.0000000000 1.3964298312
1.7661173889 1.0000000000 1.3731001691
7.4122564196 1.0000000000 1.4461837849
7.8142219617 1.0000000000 0.2285672256
5.2848374158 1.0000000000 0.9457564344
6.5708817734 1.0000000000 0.4284603050
7.3820290900 1.0000000000 0.9767548065
4.5777234598 1.0000000000 1.3824325983
6.4161372487 1.0000000000 1.2110531197
7.7036112479 1.0000000000 0.5448079304
6.8028719042 1.0000000000 1.1713349270
1.3207495375 1.0000000000 1.4558930442
7.0981198092 1.0000000000 1.1219628000
7.5499245779 1.0000000000 0.7005564979
7.8494961909 1.0000000000 1.4967358748
2.2045091452 1.0000000000 1.2646897203
3.9453475269 1.0000000000 0.8560679922
5.4912798952 1.0000000000 0.5773106954
5.6977114154 1.0000000000 0.4939323863
2.1269447095 1.0000000000 1.1584182304
6.9354066121 1.0000000000 0.7856353286
7.3063910019 1.0000000000 1.0984459035
6.8104357235 1.0000000000 1.3415490419
0.6164576687 1.0000000000 1.4466360584
7.2954520451 1.0000000000 0.2826264352
4.2824751106 1.0000000000 0.9162186088
7.0220102473 1.0000000000 0.8265074231
2.1921295890 1.0000000000 1.3615927653
3.8319838431 1.0000000000 1.3345871081
5.7136524219 1.0000000000 1.1799012189
4.5163403771 1.0000000000 0.8294212370
6.6828120742 1.0000000000 0.9314588414
2.2675540386 1.0000000000 1.1869919776
5.5545779520 1.0000000000 0.6442124653
6.0674433502 1.0000000000 0.8396700739
5.4468576460 1.0000000000 1.4495795355
3.0075534730 1.0000000000 1.0899156221
3.9208069480 1.0000000000 1.3489368562
4.0719730134 1.0000000000 1.0539485456
2.1001825169 1.0000000000 1.2835896525
5.0732465507 1.0000000000 1.2565842847
3.5849083895 1.0000000000 1.1632479601
2.7784524247 1.0000000000 1.2905029934
7.2515360439 1.0000000000 1.0704764157
5.3023671331 1.0000000000 0.9967474039
4.2033213344 1.0000000000 1.2288597541
7.7972284744 1.0000000000 1.0781375864
2.8118017726 1.0000000000 1.4578206819
7.8426627591 1.0000000000 0.7727228747
5.3582313385 1.0000000000 0.7768936602
2.2670312422 1.0000000000 1.4519205025
7.3418777424 1.0000000000 1.3537811192
3.5413388404 1.0000000000 1.1296092635
6.5623060566 1.0000000000 1.2463709342
4.0114083818 1.0000000000 1.1858534771
6.3907333902 1.0000000000 0.8213365419
4.6438307630 1.0000000000 1.3629905435
1.7285080038 1.0000000000 1.4466728852
1.9553602519 1.0000000000 1.3779082802
4.4036250567 1.0000000000 1.4728394898
2.9803415988 1.0000000000 1.1811165982
7.6402117771 1.0000000000 0.1325094067
4.7718249337 1.0000000000 0.9139505573
5.5196436119 1.0000000000 1.0140154652
5.4910906814 1.0000000000 1.3061327010
6.7224815769 1.0000000000 0.3260643630
6.2269801974 1.0000000000 0.9007118464
4.8636854100 1.0000000000 1.3560659276
6.8470969429 1.0000000000 1.3810888242
2.3815688053 1.0000000000 1.3495309609
7.6842023646 1.0000000000 0.6173854938
7.8239393608 1.0000000000 0.8154719723
4.3776284021 1.0000000000 0.8577227519
4.3224466892 1.0000000000 1.2535874506
4.6479363329 1.0000000000 0.7457184053
6.6492056048 1.0000000000 0.5298056345
4.5327484753 1.0000000000 1.3494008813
5.6593835624 1.0000000000 1.3977649002
3.1018270373 1.0000000000 1.0249123967
7.2754849086 1.0000000000 1.1377906987
5.9376503291 1.0000000000 0.6797117305
7.7130300344 1.0000000000 0.9488509990
6.4233040939 1.0000000000 1.2707081767
2.9094009286 1.0000000000 1.4455316795
6.6898364950 1.0000000000 0.2376411951
3.3798343612 1.0000000000 1.3168406057
6.7069638399 1.0000000000 0.7705975995
5.4167595181 1.0000000000 0.8120798922
6.7878800183 1.0000000000 0.7383926421
3.1659019628 1.0000000000 1.4530839431
6.8315342624 1.0000000000 1.1189535542
7.0821762143 1.0000000000 0.1725019424
6.5993791794 1.0000000000 0.4775837332
3.3722583227 1.0000000000 1.1421202367
3.9460523765 1.0000000000 1.2920013807
4.6100988983 1.0000000000 0.8945882101
4.5085796758 1.0000000000 0.7610887901
5.1408224498 1.0000000000 1.0236736266
5.1915162432 1.0000000000 1.0960039209
4.3331963813 1.0000000000 0.7037740594
1.9240310473 1.0000000000 1.2902519117
7.0745077606 1.0000000000 0.4592876730
7.3306462093 1.0000000000 0.3289324805
4.1244173369 1.0000000000 1.0876822312
7.5426262246 1.0000000000 1.2886345453
6.5740115598 1.0000000000 1.3528032499
7.3294266180 1.0000000000 1.2129452313
6.2314781259 1.0000000000 1.4741805886
7.3151919278 1.0000000000 0.8261986338
5.9472069086 1.0000000000 1.1575086575
5.6925647891 1.0000000000 0.4283701875
7.5055444782 1.0000000000 0.4708590675
5.7215838370 1.0000000000 1.0271640820
1.4232351807 1.0000000000 1.3508427467
5.0805578463 1.0000000000 1.3972500187
7.1719780097 1.0000000000 1.2723099269
7.0828027759 1.0000000000 1.0306187718
5.0338190368 1.0000000000 1.0774259459
7.0512296282 1.0000000000 0.3729221948
5.5433681718 1.0000000000 0.5407404736
4.7333909864 1.0000000000 0.8111705628
3.2960341111 1.0000000000 1.0706937463
5.9921718658 1.0000000000 1.4002886084
6.0353570737 1.0000000000 1.2625286924
5.8814979724 1.0000000000 0.8531813955
7.1407096674 1.0000000000 1.3308969800
4.2578161171 1.0000000000 1.4615970465
3.5454268542 1.0000000000 1.2598549332
5.3017793487 1.0000000000 1.2498755117
3.4765719443 1.0000000000 1.3900477876
6.7631508778 1.0000000000 1.3923506077
7.7215864748 1.0000000000 0.1128860952
2.4534128305 1.0000000000 1.3537010387
6.6013900532 1.0000000000 0.8314659427
7.0870138292 1.0000000000 1.4365866317
3.6469166905 1.0000000000 1.2953118195
7.5300639323 1.0000000000 1.3992326621
4.7207735760 1.0000000000 1.0819081150
6.9363524766 1.0000000000 0.5941764519
7.8680712558 1.0000000000 0.5524389599
6.7420408405 1.0000000000 1.1805905682
5.3753055030 1.0000000000 0.9117902610
7.2679570510 1.0000000000 1.1997097485
2.2048275373 1.0000000000 1.4650285771
5.3225554345 1.0000000000 1.3824992474
3.7513304235 1.0000000000 0.8029717789
5.5761222841 1.0000000000 0.4831813761
4.2271140523 1.0000000000 1.1245062947
6.7856312383 1.0000000000 0.5701532848
7.3540531819 1.0000000000 0.8683248814
5.4862439307 1.0000000000 0.7219189144
6.0345161073 1.0000000000 1.3810851092
4.5325281046 1.0000000000 1.0422743345
6.4298482998 1.0000000000 1.4455280771
1.7985789726 1.0000000000 1.3050870397
4.5825321920 1.0000000000 1.1913541381
6.0479098268 1.0000000000 0.6367135400
7.4569195100 1.0000000000 0.4099789432
2.0322482534 1.0000000000 1.4251203057
7.4349180542 1.0000000000 1.2143501423
7.7529508868 1.0000000000 1.4810667168
6.7323528405 1.0000000000 0.6542150573
4.3545054444 1.0000000000 0.7758840300
7.4909812656 1.0000000000 0.2341965815
2.7698235169 1.0000000000 1.0181586910
5.2704803454 1.0000000000 1.4907512731
5.7264842728 1.0000000000 0.8320533809
7.8165164296 1.0000000000 0.5186957273
4.1364922835 1.0000000000 1.0318985652
5.4403804393 1.0000000000 0.5618383325
7.2583019583 1.0000000000 0.8283160433
6.1540870388 1.0000000000 1.2441940047
3.1903866445 1.0000000000 1.1331942024
1.6469292066 1.0000000000 1.2814665258
5.3106374629 1.0000000000 1.3116093168
2.4727403171 1.0000000000 1.2688637823
4.6377655823 1.0000000000 1.2083886925
7.7847939061 1.0000000000 0.6843143191
4.5840033470 1.0000000000 1.2555865216
5.1921482184 1.0000000000 1.0468514649
6.4253247291 1.0000000000 0.7048230912
5.3577758249 1.0000000000 1.0217132067
5.4922203207 1.0000000000 0.9022560749
7.8380222993 1.0000000000 0.7185911589
2.0865542694 1.0000000000 1.4352544681
7.6922973234 1.0000000000 1.1012418789
3.6455790686 1.0000000000 1.1296719830
4.2709277244 1.0000000000 1.0746429631
7.4737193580 1.0000000000 0.7704654627
7.4832001348 1.0000000000 1.2486137957
2.8595186816 1.0000000000 1.0372236046
3.2211671954 1.0000000000 1.2143781124
4.3253354633 1.0000000000 0.8152309592
6.5300042121 1.0000000000 1.3523212462
7.0712427238 1.0000000000 0.9690814454
6.5852526510 1.0000000000 0.8850242743
6.0848011215 1.0000000000 1.1707353674
5.0576084671 1.0000000000 1.4990624733
6.7101054317 1.0000000000 0.4151078795
5.7658580122 1.0000000000 1.3466207612
7.2172318014 1.0000000000 0.1578950529
4.5179993823 1.0000000000 1.1697790317
6.8258833670 1.0000000000 1.2225608021
5.2380645871 1.0000000000 1.2674159478
5.5768468546 1.0000000000 1.0862523172
3.9993189689 1.0000000000 0.8809829361
7.8645850828 1.0000000000 1.2877240817
1.0012071016 1.0000000000 1.4488951252
7.0537005956 1.0000000000 1.1786718995
6.5028891886 1.0000000000 0.8308573283
7.2581061661 1.0000000000 0.1839211278
5.9806139783 1.0000000000 1.4971353768
6.4392871518 1.0000000000 0.4556633180
7.2603935578 1.0000000000 0.5073255868
5.1795947408 1.0000000000 1.1885382115
7.2082342457 1.0000000000 1.0928210112
6.2350650678 1.0000000000 0.7887693546
6.3240895124 1.0000000000 0.8867019131
6.3660463481 1.0000000000 0.4246924919
5.6056652686 1.0000000000 1.1294701550
3.8984292707 1.0000000000 1.0087561725
7.7795161268 1.0000000000 0.0500650879
6.9785330454 1.0000000000 0.6268776136
5.8327160339 1.0000000000 0.6417093228
5.9900325068 1.0000000000 0.8005294504
5.5922519606 1.0000000000 0.9457766357
1.9518893080 1.0000000000 1.1892052727
3.7805240024 1.0000000000 1.2410285275
5.9543129186 1.0000000000 0.9074624488
6.5390321423 1.0000000000 1.1819137515
5.7930957393 1.0000000000 0.7106152721
3.6607440490 1.0000000000 1.2458015527
6.0514913011 1.0000000000 0.3864987474
6.7261048943 1.0000000000 1.3676755428
5.3460517661 1.0000000000 0.5170023557
2.8943970058 1.0000000000 1.1337329216
5.7322408512 1.0000000000 0.9269712238
7.4408518429 1.0000000000 0.0850775189
7.6434978503 1.0000000000 1.1309069469
3.9338630413 1.0000000000 1.2397540837
7.1728798110 1.0000000000 0.9163540172
7.3254917575 1.0000000000 0.6056305224
5.7624046271 1.0000000000 0.8593073657
6.4632836187 1.0000000000 0.6104299722
6.9672329688 1.0000000000 1.2015814428
6.1006195056 1.0000000000 1.4688224926
4.8504720787 1.0000000000 0.7266711881
4.8848833392 1.0000000000 1.4283834753
7.2875282679 1.0000000000 0.3412060648
6.4266436185 1.0000000000 0.7733003970
6.1821125095 1.0000000000 1.0417774656
2.3401288187 1.0000000000 1.3164709810
6.1703235937 1.0000000000 0.3713193605
5.8873951491 1.0000000000 1.3112271421
5.1333759788 1.0000000000 1.4423106924
6.8652258890 1.0000000000 0.5027595318
4.7594099739 1.0000000000 0.8609533209
7.3672797386 1.0000000000 1.0539686730
4.2438580301 1.0000000000 1.2974317399
5.3372824567 1.0000000000 1.4805804234
5.7672918653 1.0000000000 1.1363674808
7.3931684361 1.0000000000 0.4918598901
7.0044943376 1.0000000000 0.5870585929
6.8204983592 1.0000000000 0.2119631072
7.7592049201 1.0000000000 1.2289073074
4.9797400430 1.0000000000 1.3386193508
5.9140664249 1.0000000000 1.0049631838
5.8150179783 1.0000000000 0.4360053463
7.1067469026 1.0000000000 0.5679556174
2.8552276924 1.0000000000 1.2725245559
3.6481649582 1.0000000000 1.1927760165
7.0406139362 1.0000000000 1.4372139202
3.8474938158 1.0000000000 0.9620686422
1.4885842572 1.0000000000 1.4573052644
6.6176408698 1.0000000000 0.3779927276
6.4856743839 1.0000000000 0.4063660438
4.1469624488 1.0000000000 0.8288345326
4.0981972543 1.0000000000 1.4289315148
4.7398403003 1.0000000000 1.3789649777
6.6291874358 1.0000000000 0.3074327240
4.0528138759 1.0000000000 0.9400164119
1.8814882510 1.0000000000 1.4288839146
3.8151441122 1.0000000000 1.3849822849
2.4916890365 1.0000000000 1.1610540604
5.2511162175 1.0000000000 0.7759245495
1.6749848467 1.0000000000 1.4481722087
1.8058248884 1.0000000000 1.4199719224
7.0527344072 1.0000000000 0.5600471515
5.5256204186 1.0000000000 1.4278068835
5.2979130909 1.0000000000 0.9014120993
4.1810647093 1.0000000000 1.3773442040
7.4900792837 1.0000000000 0.8405410720
6.5921259491 1.0000000000 0.9779760984
6.0891127798 1.0000000000 0.8842197838
5.8619716363 1.0000000000 1.0937222684
6.9217274590 1.0000000000 1.0016531805
5.4686303148 1.0000000000 0.9499806774
5.3023646528 1.0000000000 1.4214539505
7.1662395890 1.0000000000 0.5347632317
7.2198285456 1.0000000000 1.1848123244
6.7899760215 1.0000000000 0.2766654572
6.8799471143 1.0000000000 0.7148365193
3.8447881015 1.0000000000 1.2507554373
4.8693812527 1.0000000000 0.5957958960
2.6070328759 1.0000000000 1.0623970176
6.2084679422 1.0000000000 1.2465840821
7.7525507955 1.0000000000 0.4579252551
5.6141047236 1.0000000000 0.6340675536
5.4752809500 1.0000000000 1.0233094142
6.2242809407 1.0000000000 1.0807222781
6.8214661198 1.0000000000 0.4299288913
7.7726991522 1.0000000000 0.5081421512
2.8533684429 1.0000000000 1.2046437699
3.4282457465 1.0000000000 1.4467403767
3.4863727615 1.0000000000 1.4651315264
5.7860486081 1.0000000000 0.6002033461
5.3567360790 1.0000000000 1.2488663873
6.3844859228 1.0000000000 0.6886250555
2.0516313977 1.0000000000 1.4720160810
4.5258711837 1.0000000000 0.6873926169
6.9001875037 1.0000000000 1.1953867710
6.8852630006 1.0000000000 0.2459270186
3.3952743609 1.0000000000 1.2656819987
1.7213206111 1.0000000000 1.3236067179
2.8009355982 1.0000000000 1.3361487689
3.9314134606 1.0000000000 1.0425707421
2.4071926436 1.0000000000 1.2166806337
3.6626215367 1.0000000000 0.9676376210
3.4051230311 1.0000000000 1.1044474879
1.8738003443 1.0000000000 1.2304147823
6.8345634304 1.0000000000 0.6244406040
1.1138737571 1.0000000000 1.4418701671
3.7313668542 1.0000000000 0.8620327716
6.5689011484 1.0000000000 0.5362142550
3.5194114363 1.0000000000 0.9190319899
7.5655207702 1.0000000000 1.3459009435
7.4811274980 1.0000000000 1.3436130528
4.0817251006 1.0000000000 0.7944289133
7.2778979087 1.0000000000 0.9620985983
6.2613770506 1.0000000000 1.3413958244
7.6503445482 1.0000000000 0.3185318795
5.2497300744 1.0000000000 1.4305973592
2.7210724356 1.0000000000 1.1730713250
7.2258946126 1.0000000000 1.2858866095
2.9423023349 1.0000000000 1.0880311125
3.7759349648 1.0000000000 0.9245924749
6.9720833542 1.0000000000 0.4888469404
2.5878460239 1.0000000000 1.3491228168
7.8230882583 1.0000000000 1.3307355071
5.4325199499 1.0000000000 0.8970260835
2.7803333046 1.0000000000 1.1833441153
2.0572018567 1.0000000000 1.3469167099
3.9476865590 1.0000000000 0.7838240352
6.0209918436 1.0000000000 0.8770171383
3.2391214076 1.0000000000 1.0912036001
6.9291436058 1.0000000000 0.5288688842
5.8540225500 1.0000000000 1.0474819952
3.5510834328 1.0000000000 1.3618191760
3.1495051536 1.0000000000 1.1856334218
3.8979172435 1.0000000000 1.4892852454
2.6533974848 1.0000000000 1.4293161664
3.0731527157 1.0000000000 1.4407124137
3.0882440037 1.0000000000 1.3991938508
7.1214185049 1.0000000000 1.2517583722
4.3819276655 1.0000000000 1.2855966846
6.8169657273 1.0000000000 0.5060163310
4.9540004321 1.0000000000 0.7462586235
5.9415818382 1.0000000000 0.8175759404
7.2885988600 1.0000000000 1.4698458294
4.5491113277 1.0000000000 0.7293372534
7.5138807386 1.0000000000 0.5146172373
6.3267324865 1.0000000000 0.6712579256
7.0922493637 1.0000000000 1.1986477124
6.6057534445 1.0000000000 1.4513226257
4.3416744979 1.0000000000 0.9244437574
4.7651442350 1.0000000000 0.6095776168
2.7805029513 1.0000000000 1.4900139022
7.4193270382 1.0000000000 1.0436399601
4.8287172322 1.0000000000 1.2707909877
3.1469056597 1.0000000000 1.0432927450
6.4380049665 1.0000000000 1.0005876469
7.6168307039 1.0000000000 0.5368744185
2.6296577036 1.0000000000 1.3628172227
4.5810553310 1.0000000000 1.4329338750
7.5646739347 1.0000000000 0.2850129714
0.2228428024 1.0000000000 1.4988191659
3.3027440671 1.0000000000 1.1714465050
3.8421920912 1.0000000000 1.4847995091
6.3616135884 1.0000000000 1.4145152704
5.9897808319 1.0000000000 1.0676044856
7.3535624257 1.0000000000 0.5232061771
1.8188153580 1.0000000000 1.1759394315
7.7408569891 1.0000000000 1.3798459422
4.8298410535 1.0000000000 1.1077688174
4.5999643819 1.0000000000 1.0273309155
4.2459616869 1.0000000000 1.1707021156
6.5131806962 1.0000000000 1.0836617207
3.2732842145 1.0000000000 0.8962300770
2.2599807845 1.0000000000 1.2321732719
2.0089963954 1.0000000000 1.2571370135
1.8937575397 1.0000000000 1.3691913063
5.9261100775 1.0000000000 1.0602359437
4.3489082261 1.0000000000 1.2060200016
4.1875465528 1.0000000000 1.0051955093
6.8254349592 1.0000000000 1.2680843919
7.5311537531 1.0000000000 0.7592681450
0.7914020598 1.0000000000 1.4846735802
6.8645725053 1.0000000000 0.2850733038
4.6848075653 1.0000000000 0.6984387006
7.2713999445 1.0000000000 0.6317879594
6.1613901903 1.0000000000 0.8636376116
3.0166908269 1.0000000000 1.1416528450
5.3962796563 1.0000000000 0.5995615708
0.6398320593 1.0000000000 1.4010570441
5.2732043698 1.0000000000 0.5314397994
3.0718952650 1.0000000000 1.1949383711
6.6607614282 1.0000000000 1.4842918291
5.5603409523 1.0000000000 0.8655326166
4.7868308588 1.0000000000 1.2190109157
5.9102962598 1.0000000000 0.8930502794
3.3495366015 1.0000000000 1.2491051700
5.2405566081 1.0000000000 0.5641020375
7.7254192352 1.0000000000 1.3124051735
4.0189070058 1.0000000000 1.3653113852
1.6975354008 1.0000000000 1.3668790780
7.4757400611 1.0000000000 1.3999875950
2.8061018686 1.0000000000 1.2417097182
1.9844084059 1.0000000000 1.4255821027
6.7042820187 1.0000000000 1.2322393734
4.3871908359 1.0000000000 1.0762387465
6.9940190617 1.0000000000 0.9486178134
5.2423115669 1.0000000000 0.6226018517
4.4880728687 1.0000000000 1.3931055868
4.5291260475 1.0000000000 0.8824469921
4.1478347980 1.0000000000 0.9355399196
4.6201946168 1.0000000000 0.7882414561
6.0739626277 1.0000000000 1.3026650734
3.3112698476 1.0000000000 1.4130877746
7.0289196596 1.0000000000 0.5176438686
4.8815749987 1.0000000000 0.9491127890
6.1357452162 1.0000000000 1.1146254448
2.0170938104 1.0000000000 1.3018743698
1.9583242088 1.0000000000 1.2432136391
6.0019135495 1.0000000000 1.2291581522
7.8640752332 1.0000000000 0.8579255960
6.5355221275 1.0000000000 0.5906171133
7.7504948070 1.0000000000 0.7764505039
1.9299214716 1.0000000000 1.4710465481
5.4524915578 1.0000000000 0.6196428010
2.9460906652 1.0000000000 1.2913896306
1.4437148537 1.0000000000 1.4030052673
1.0450834685 1.0000000000 1.3325797272
7.6962573200 1.0000000000 1.4456427971
7.3826894787 1.0000000000 0.5931219554
2.6331123469 1.0000000000 1.1405258462
0.5455138226 1.0000000000 1.4393519294
2.3457255700 1.0000000000 1.3932010416
2.4930707852 1.0000000000 1.3105035881
1.8844756569 1.0000000000 1.3217737070
5.6327837617 1.0000000000 0.9685914275
6.9507403419 1.0000000000 1.4948421041
3.2247090472 1.0000000000 0.9409389711
3.3617555971 1.0000000000 1.4968964873
5.8024583768 1.0000000000 0.7709514711
6.4638339714 1.0000000000 0.8631750552
5.6899221751 1.0000000000 0.7098233010
4.3962610398 1.0000000000 1.3663247247
5.0489846707 1.0000000000 0.7524214968
7.9510312972 1.0000000000 0.9978543107
7.9552242871 1.0000000000 1.3177749624
7.9276260619 1.0000000000 1.1191894940
7.9497862024 1.0000000000 1.2400427268
7.9040389322 1.0000000000 0.9591018740
7.8869356180 1.0000000000 0.2202216128
7.8817794477 1.0000000000 1.1216967487
7.9014560119 1.0000000000 0.8192871131
7.9132471722 1.0000000000 1.4583776291
7.9606120345 1.0000000000 1.0759374434
7.8831362284 1.0000000000 1.1692851383
7.9062811284 1.0000000000 1.3910746647
7.9127368735 1.0000000000 1.0664776074
7.9492244044 1.0000000000 1.1748511880
7.8795657176 1.0000000000 0.5060550845
7.8974760995 1.0000000000 0.3853859561
7.9211492109 1.0000000000 0.6898493882
7.8849173356 1.0000000000 0.4489355690
7.9009890839 1.0000000000 1.2513197667
7.9420025605 1.0000000000 0.8563917987
7.9194019156 1.0000000000 0.6055621974
7.9680798465 1.0000000000 1.3613487810
7.9692221937 1.0000000000 0.3273809949
7.9660243424 1.0000000000 0.4825532842
7.9055477239 1.0000000000 0.1202753751
7.9984561829 1.0000000000 1.1564508812
7.9491748240 1.0000000000 0.4192326807
7.9305343425 1.0000000000 0.5528542015
7.9888759606 1.0000000000 0.1687178971
7.9411673115 1.0000000000 0.1878815660
7.9502896456 1.0000000000 0.1353343068
7.9882914297 1.0000000000 0.2128973516
7.9893987878 1.0000000000 0.6865554375
7.9757471972 1.0000000000 0.9167642249
7.9662135948 1.0000000000 0.7768852867
7.9396187821 1.0000000000 0.2747111823
7.9270601054 1.0000000000 0.3393579393
7.9807190163 1.0000000000 0.6144490863
7.9112803102 1.0000000000 0.0624672793
7.9944828278 1.0000000000 0.2690944909
0.0071876474 1.0000000000 0.3129482579
0.0561670699 1.0000000000 0.9089214473
0.0069764714 1.0000000000 1.1823017333
0.0398107019 1.0000000000 0.7408027647
0.0426564702 1.0000000000 1.0796636479
0.0529727919 1.0000000000 1.3584338842
0.1016528786 1.0000000000 1.4297336487
0.0406352492 1.0000000000 1.2140114180
0.0226422809 1.0000000000 0.9394270260
0.0429407234 1.0000000000 0.8625153248
0.0025724981 1.0000000000 0.7878194133
0.1018710980 1.0000000000 1.3379317110
0.0571995771 1.0000000000 1.2583898579
0.0886754899 1.0000000000 1.1826739394
0.0143443016 1.0000000000 0.3636073902
0.0123648472 1.0000000000 0.9933886033
0.0213114199 1.0000000000 1.2928830606
0.0159826068 1.0000000000 1.3950437273
7.9026226321 1.0000000000 0.0127781511
0.0721224563 1.0000000000 0.0257019410
0.0991150323 0.0000000000 0.4942274258
0.0987920386 0.0000000000 1.3877260675
0.0706108953 0.0000000000 0.8251344529
0.0941337184 0.0000000000 1.0157362279
0.0706322933 0.0000000000 0.6590360610
0.0514934579 0.0000000000 0.9189294441
0.0055097739 0.0000000000 1.3547296521
0.1186590713 0.0000000000 1.1435109943
0.0216776704 0.0000000000 1.2398245077
0.1117667423 0.0000000000 0.1869373912
0.0918790985 0.0000000000 0.4247792412
0.0775816359 0.0000000000 0.8820785592
0.0357077313 0.0000000000 1.1793719261
0.1144569772 0.0000000000 0.6150564251
0.1079455789 0.0000000000 0.9225100012
0.1161879900 0.0000000000 0.9771483792
0.1054563254 0.0000000000 0.3390858149
0.0551340548 0.0000000000 1.3095700809
0.0832561829 0.0000000000 1.2733360281
0.0799949708 0.0000000000 0.5761334993
0.0755874581 0.0000000000 1.0682190241
0.0752015484 0.0000000000 0.7614109082
0.0709825384 0.0000000000 1.1339526310
0.1038790769 0.0000000000 1.4532500919
0.0369590654 0.0000000000 1.0130882181
0.5353281734 0.0000000000 0.4941106970
0.2631624301 0.0000000000 1.3592316785
2.2784189769 0.0000000000 0.8694968938
1.4350864121 0.0000000000 1.2763587237
6.0080201101 0.0000000000 1.2977915439
0.3637887544 0.0000000000 1.3729546428
1.9449751993 0.0000000000 1.3848124558
1.3139255115 0.0000000000 0.5776817778
4.2573894651 0.0000000000 1.3438934102
5.0893289623 0.0000000000 1.4373482292
4.8593824824 0.0000000000 1.0347905473
5.0948930460 0.0000000000 1.0152832301
0.4279645350 0.0000000000 0.8435194803
4.8124863678 0.0000000000 0.9915151702
5.6000959336 0.0000000000 1.3010102830
3.7666368292 0.0000000000 1.2034076303
2.8735856744 0.0000000000 0.6406012495
3.5970022602 0.0000000000 1.2517447682
1.3308937463 0.0000000000 1.0243202670
3.0128028295 0.0000000000 0.8345879579
4.8412712053 0.0000000000 1.3295912590
1.0320384634 0.0000000000 0.2418924275
1.0269667375 0.0000000000 0.3772242894
4.0753828061 0.0000000000 0.8014801360
3.3154682139 0.0000000000 1.3807366487
3.1960268181 0.0000000000 0.9160571558
1.7344716997 0.0000000000 0.7676071185
1.5331847285 0.0000000000 0.2835093722
0.6213221162 0.0000000000 0.2892175830
4.9491572760 0.0000000000 1.4124065017
3.9863115200 0.0000000000 1.3049433844
1.2448275949 0.0000000000 0.8933154017
6.3732034649 0.0000000000 1.4536319755
1.4697141117 0.0000000000 0.8633562832
2.5527836321 0.0000000000 0.8810139737
4.9090340341 0.0000000000 1.0023886926
0.6711570518 0.0000000000 0.5209989271
3.5063488714 0.0000000000 1.1189067711
0.4934239827 0.0000000000 0.5223598753
2.1188582496 0.0000000000 0.4313615807
2.0933737016 0.0000000000 1.0375370757
2.1194323508 0.0000000000 1.3712655531
0.8388832259 0.0000000000 0.9421703050
3.9715015355 0.0000000000 1.1238114875
4.4357438293 0.0000000000 1.3090021190
5.0416714804 0.0000000000 1.1751799293
2.1643117410 0.0000000000 1.4197787387
1.1459752707 0.0000000000 0.8587864148
2.6318981983 0.0000000000 1.3998549404
5.6895612702 0.0000000000 1.4808195329
0.4422727658 0.0000000000 0.5217225436
1.7867723492 0.0000000000 0.8668997342
0.6346094213 0.0000000000 0.6979672421
0.5166978236 0.0000000000 0.6541576062
0.3825376170 0.0000000000 0.2451726041
2.5031977656 0.0000000000 1.1283391148
3.9224000872 0.0000000000 1.2742117514
2.7583666941 0.0000000000 0.6248325457
2.4297523802 0.0000000000 0.9396734392
5.5745018232 0.0000000000 1.2543111879
3.7306651890 0.0000000000 1.4267329976
1.9810838310 0.0000000000 1.0694129835
1.9232526143 0.0000000000 0.9816258697
0.2889505704 0.0000000000 0.6822737882
6.0824461641 0.0000000000 1.2469907073
2.7173135307 0.0000000000 0.8578359237
1.6862405186 0.0000000000 1.4032527914
0.8734701281 0.0000000000 1.1307655669
0.6412310697 0.0000000000 1.2673217998
0.6993607627 0.0000000000 0.3975245339
3.0317745224 0.0000000000 0.7171686689
4.2683052451 0.0000000000 1.4970755699
0.9460833621 0.0000000000 0.7721744512
5.6521925379 0.0000000000 1.1708980451
3.7802003895 0.0000000000 1.0117913632
0.8052185424 0.0000000000 0.8266616921
4.0602924256 0.0000000000 1.4163217612
5.4647098451 0.0000000000 1.2613732643
0.3379947490 0.0000000000 1.4196037994
1.1793008877 0.0000000000 0.9039492180
0.9714134506 0.0000000000 0.4554885213
4.9001263928 0.0000000000 1.1746318365
1.8907351509 0.0000000000 0.3516470833
0.5477657031 0.0000000000 0.3435773566
0.9916119062 0.0000000000 0.5133605079
4.2159894230 0.0000000000 1.4230564296
0.1807038497 0.0000000000 1.3760697711
1.9217413943 0.0000000000 0.4447557035
3.8638491712 0.0000000000 1.4327254302
0.5734256006 0.0000000000 0.8207228060
2.4644222637 0.0000000000 1.0662391802
4.4792403205 0.0000000000 1.2272588870
6.9247544674 0.0000000000 1.3230724167
3.5862878918 0.0000000000 1.0263062876
1.6342563124 0.0000000000 0.6871694503
1.8728576773 0.0000000000 0.6252133017
0.2970242200 0.0000000000 0.9525711914
3.0075410128 0.0000000000 1.2686087534
0.8225593151 0.0000000000 0.4626911003
4.6423387585 0.0000000000 0.9580846632
3.4324724302 0.0000000000 0.7337133370
6.6935156344 0.0000000000 1.3596536417
3.6890414592 0.0000000000 1.2254097823
4.0879947582 0.0000000000 1.1774285981
0.4846221118 0.0000000000 0.5934665197
4.3680686868 0.0000000000 1.2003784191
1.3605689136 0.0000000000 0.4470697699
3.0553828833 0.0000000000 0.9420255205
1.3352809497 0.0000000000 0.3462485982
6.9998860010 0.0000000000 1.4227428288
5.1016795128 0.0000000000 1.1609255960
3.6672067796 0.0000000000 1.3081483195
1.3891484086 0.0000000000 0.3391071321
0.6908345408 0.0000000000 1.4722723310
2.9684063874 0.0000000000 0.7251788123
5.8246981116 0.0000000000 1.3804822636
0.2637680736 0.0000000000 1.3064511950
1.1227434018 0.0000000000 0.9510377790
3.9990533820 0.0000000000 1.3624405384
5.5800853827 0.0000000000 1.4510438317
5.5610751941 0.0000000000 1.1491283551
1.2570132249 0.0000000000 1.3061958592
0.7165611283 0.0000000000 1.1687608089
4.7434701955 0.0000000000 1.2549233911
3.9685976619 0.0000000000 0.9064518960
1.5874666294 0.0000000000 1.0363840390
1.1955702682 0.0000000000 0.4822348929
2.9572360822 0.0000000000 1.2380532680
5.7847650386 0.0000000000 1.1415193220
4.2996953439 0.0000000000 1.1736660901
0.9371175040 0.0000000000 1.0111602141
1.6554332122 0.0000000000 1.1635789651
5.5414441727 0.0000000000 1.2014802569
1.8176701406 0.0000000000 0.5035515230
2.7419681318 0.0000000000 0.9236002726
1.1109842325 0.0000000000 1.0684560105
4.1112847599 0.0000000000 1.3186468871
4.5998923086 0.0000000000 1.4980840156
5.2497527745 0.0000000000 1.0005276681
3.1047389427 0.0000000000 1.1556283070
2.9227241793 0.0000000000 1.4329957898
4.3190866568 0.0000000000 1.0970502481
4.7347693642 0.0000000000 1.0580252380
2.1963762557 0.0000000000 0.8705977943
2.3303366625 0.0000000000 0.7868098123
3.5487353382 0.0000000000 0.7123374245
0.9533447622 0.0000000000 0.8889221237
2.3773675649 0.0000000000 0.6052950677
0.7673997714 0.0000000000 0.9029429108
0.5518279467 0.0000000000 0.6059848760
1.2042126687 0.0000000000 1.4634426890
3.6071834383 0.0000000000 0.9073367698
2.0730777353 0.0000000000 0.4413361518
4.4822778155 0.0000000000 1.0021498865
7.3442509584 0.0000000000 1.4316279977
5.1043147860 0.0000000000 1.3197370383
0.8042276641 0.0000000000 0.6182136577
4.5921133919 0.0000000000 0.9874927668
0.2700453228 0.0000000000 1.4560757732
2.9435288639 0.0000000000 0.8117345394
6.3084032498 0.0000000000 1.2889920008
4.9775422497 0.0000000000 1.3129393941
4.3608828963 0.0000000000 1.0034245345
1.0127805048 0.0000000000 0.8740740303
1.5130155804 0.0000000000 1.4435545885
4.2278964856 0.0000000000 1.1643448279
2.0431119705 0.0000000000 0.4803899647
0.5160768792 0.0000000000 1.1472496190
0.5128995319 0.0000000000 0.3748215688
3.2547107879 0.0000000000 1.1909036733
0.9242030464 0.0000000000 0.6848900648
4.6700126225 0.0000000000 1.1040901254
0.8328965750 0.0000000000 0.8666223935
5.2327988666 0.0000000000 1.3554309120
0.9038866124 0.0000000000 1.3167222277
2.9759296222 0.0000000000 0.9456057079
0.5866074040 0.0000000000 0.3918260294
1.1723792731 0.0000000000 0.4249906548
2.0302706071 0.0000000000 1.0915337184
6.9724497034 0.0000000000 1.3467241241
2.3170798760 0.0000000000 0.8994818919
2.0703649160 0.0000000000 0.5601596071
1.4390019024 0.0000000000 1.3652986874
0.7038939944 0.0000000000 1.0540452888
1.3809684775 0.0000000000 1.2193760222
0.2998496756 0.0000000000 1.0970810704
6.2364920251 0.0000000000 1.2578963188
4.6520390941 0.0000000000 1.1993802482
2.4742184469 0.0000000000 1.1961883709
2.5269507480 0.0000000000 0.6920804423
0.5063093257 0.0000000000 0.2397081632
1.2891049988 0.0000000000 0.9653740722
1.0708594129 0.0000000000 0.3535534529
4.4419799263 0.0000000000 1.1323667423
3.8368750686 0.0000000000 0.7708947273
4.3886003154 0.0000000000 1.1451110034
0.3601523857 0.0000000000 1.1504833977
0.2236417623 0.0000000000 0.8937965895
2.4812924720 0.0000000000 1.0129514809
1.9312714967 0.0000000000 0.5839990294
5.7098901791 0.0000000000 1.3917000578
1.6246171201 0.0000000000 0.3061617697
0.3302022314 0.0000000000 1.2981251354
6.5050644557 0.0000000000 1.3749591396
7.1259535499 0.0000000000 1.4684449353
1.3177795201 0.0000000000 1.4959100961
2.6651984147 0.0000000000 0.5152326181
4.9595016189 0.0000000000 1.0203330661
4.3093212639 0.0000000000 1.2533180159
5.4689037980 0.0000000000 1.1216790065
2.7097351879 0.0000000000 1.3814186406
2.4100485958 0.0000000000 0.7691858590
5.9122421813 0.0000000000 1.4185076959
2.9716811141 0.0000000000 0.8581844704
0.8735708935 0.0000000000 0.8960547183
0.8108513796 0.0000000000 1.3172819713
0.1346927939 0.0000000000 0.6575914362
3.3950653368 0.0000000000 0.7093433489
2.3195557857 0.0000000000 1.4322833407
5.0071205428 0.0000000000 1.0261601215
3.4300020867 0.0000000000 0.6470203021
0.3623673836 0.0000000000 0.7067146500
5.3968173555 0.0000000000 1.1915711428
1.9653924468 0.0000000000 0.6224188808
3.5966920067 0.0000000000 1.1199317389
2.6787334332 0.0000000000 0.9625555147
6.3716585824 0.0000000000 1.2414414902
1.0232065845 0.0000000000 1.3775558004
6.5053422474 0.0000000000 1.4528219365
3.2084643953 0.0000000000 0.6260974425
6.2799616798 0.0000000000 1.4736615904
0.7496444679 0.0000000000 0.8429712205
0.9608902424 0.0000000000 1.3744136666
4.1384118129 0.0000000000 0.9908369615
0.1794740977 0.0000000000 1.4699902123
1.6041181776 0.0000000000 1.1727104722
3.1920994060 0.0000000000 0.8399780497
1.3701341467 0.0000000000 0.8465324875
5.5374699251 0.0000000000 1.1073101326
2.2700749994 0.0000000000 1.0715098991
1.6076544715 0.0000000000 1.4506827885
2.4878473459 0.0000000000 0.5877772133
5.5420963293 0.0000000000 1.3483484063
3.7601472148 0.0000000000 1.1416394930
7.1808847567 0.0000000000 1.4483297003
0.8025090969 0.0000000000 1.3865716244
0.6420674257 0.0000000000 1.4839325492
1.4949586881 0.0000000000 0.4101575224
5.1296095424 0.0000000000 1.2836776707
3.8164019912 0.0000000000 1.4068533372
2.9613011885 0.0000000000 1.0530120778
1.4991864323 0.0000000000 1.4906934350
3.1847047122 0.0000000000 0.9744332540
0.6275272602 0.0000000000 0.1668918946
2.1423028131 0.0000000000 0.8351764705
4.8861169874 0.0000000000 1.2708299535
3.6201653317 0.0000000000 0.8080117673
0.5318397985 0.0000000000 0.4405812709
0.4664181376 0.0000000000 0.4775376056
2.1421351457 0.0000000000 1.1510543502
0.8117608068 0.0000000000 1.0560100628
0.4173938231 0.0000000000 1.0531544576
2.0721819535 0.0000000000 0.9136455205
2.5851289378 0.0000000000 0.7171977384
1.8262326669 0.0000000000 0.9903616369
3.8970140609 0.0000000000 1.3810217340
4.0180192154 0.0000000000 0.9763112626
1.3092025497 0.0000000000 1.1945877439
0.4666763255 0.0000000000 1.0997648385
1.2625428299 0.0000000000 1.0009556785
4.8176908401 0.0000000000 1.4755588349
3.9785931408 0.0000000000 0.7665697543
1.3500467120 0.0000000000 0.2923654435
1.9951625972 0.0000000000 1.2073787188
2.0541342317 0.0000000000 1.1885796851
1.5835285614 0.0000000000 1.1169286785
3.3215244661 0.0000000000 0.8234457047
4.4619374605 0.0000000000 0.9231015018
2.5149472172 0.0000000000 1.2130850274
0.8480555595 0.0000000000 1.4390570886
0.3363683990 0.0000000000 0.3914890783
1.6113995969 0.0000000000 1.2960293672
1.4278478157 0.0000000000 0.3971386040
3.7505754878 0.0000000000 1.0885581470
3.2652588123 0.0000000000 1.3977108886
0.9955182074 0.0000000000 0.9241062202
3.7107820251 0.0000000000 1.3059217447
2.3195098726 0.0000000000 1.0834690689
3.9013300805 0.0000000000 0.9114310897
5.7744225248 0.0000000000 1.4053036507
1.0255955829 0.0000000000 1.2844451533
1.0722323571 0.0000000000 0.9526091402
3.7167705609 0.0000000000 1.1850937433
1.1678427207 0.0000000000 0.3153279092
2.6814508836 0.0000000000 0.7293422454
2.8846700740 0.0000000000 0.7468634802
2.6259183081 0.0000000000 1.0578687789
1.1609520783 0.0000000000 1.1468352750
1.8971702187 0.0000000000 0.8293793927
1.2529949689 0.0000000000 0.4750404253
4.1235207193 0.0000000000 1.2230567915
1.2078999344 0.0000000000 1.0657807251
0.4222242871 0.0000000000 1.3945642545
0.3742343950 0.0000000000 0.8356221279
3.4796696595 0.0000000000 0.9125195567
0.9627953797 0.0000000000 0.8409434933
5.7594491416 0.0000000000 1.1947305963
0.4136136466 0.0000000000 0.1443769429
1.3703256146 0.0000000000 0.9758257714
1.3328912013 0.0000000000 1.2443199590
1.9952273747 0.0000000000 0.7908898035
1.4474443539 0.0000000000 1.3218054100
1.5575430621 0.0000000000 1.3102536920
2.8605763631 0.0000000000 1.4329527629
2.0506735315 0.0000000000 0.7216611739
1.6498593120 0.0000000000 0.5366405725
1.9944518464 0.0000000000 0.5512693907
2.3265620566 0.0000000000 0.6724963477
2.4083704457 0.0000000000 0.5540671767
0.2282347457 0.0000000000 0.3476775439
0.2390419545 0.0000000000 0.5933651216
2.2210255419 0.0000000000 0.8276839223
7.6577825304 0.0000000000 1.4667039001
4.7619997218 0.0000000000 1.1061352170
4.0693615129 0.0000000000 0.9985797036
3.3496356978 0.0000000000 1.3160973605
3.0200844395 0.0000000000 1.0956623541
2.6450805514 0.0000000000 1.4464966827
2.3969670744 0.0000000000 0.6983529630
1.0629720101 0.0000000000 1.2354261069
4.3999749520 0.0000000000 1.0653902601
1.9186884829 0.0000000000 0.6938179404
0.1901446231 0.0000000000 0.3920783224
1.5240521043 0.0000000000 1.3842418125
6.4528865091 0.0000000000 1.3792060634
3.3881408413 0.0000000000 0.8077304205
0.3348028541 0.0000000000 0.1610594635
1.4634133190 0.0000000000 1.1238467893
1.1101681385 0.0000000000 0.4766452341
0.5640374113 0.0000000000 0.0942781332
3.4403816695 0.0000000000 0.8212247052
4.8989377521 0.0000000000 1.0589826149
0.6689573165 0.0000000000 0.1116388947
4.1185218333 0.0000000000 0.9351036441
1.9140142215 0.0000000000 0.9236707430
5.9750135276 0.0000000000 1.2623644595
4.4291606652 0.0000000000 0.9576591965
2.0589889261 0.0000000000 0.8410416744
3.1563504102 0.0000000000 0.6446076360
3.3604763354 0.0000000000 1.1336511282
1.0207104508 0.0000000000 0.8310300132
1.6472899878 0.0000000000 1.3820975831
6.0005315794 0.0000000000 1.3486169017
3.2684253669 0.0000000000 1.0026167855
6.0721561622 0.0000000000 1.4486510417
4.2611943951 0.0000000000 1.2903355863
1.8513213940 0.0000000000 1.2683187477
0.2696932456 0.0000000000 0.8005344845
0.2925520060 0.0000000000 0.4449284631
1.5193498655 0.0000000000 0.5422148290
0.2035699372 0.0000000000 0.1576580677
1.7035133829 0.0000000000 0.5186468812
0.6483889013 0.0000000000 0.4371514585
1.0648168656 0.0000000000 0.5121926360
4.2582089892 0.0000000000 1.1042438643
0.6316803259 0.0000000000 0.9223391001
5.1014083503 0.0000000000 1.2351809694
1.8027459753 0.0000000000 0.4603969674
0.4961752655 0.0000000000 0.9679952193
6.4685345170 0.0000000000 1.3162839893
6.8038854216 0.0000000000 1.4971829066
4.1596416179 0.0000000000 1.4402162612
4.2849988428 0.0000000000 0.9964303526
1.2448252525 0.0000000000 1.4985257535
2.6005752845 0.0000000000 0.5061048790
0.9244251710 0.0000000000 0.6077625804
1.2105588138 0.0000000000 0.7103580759
1.7568319426 0.0000000000 1.2937519701
3.8610288429 0.0000000000 1.1348824040
0.3889884059 0.0000000000 0.5330938557
2.3702445613 0.0000000000 1.2676377280
3.1696519119 0.0000000000 1.0780486724
0.1976168793 0.0000000000 0.8193867351
1.9627399272 0.0000000000 0.8516904803
0.2838308210 0.0000000000 1.0073357419
5.0108254991 0.0000000000 1.1225242295
0.2239045852 0.0000000000 0.6807191579
2.8177705753 0.0000000000 0.8137025133
0.8380392970 0.0000000000 0.6830880991
0.8902080140 0.0000000000 1.2608681088
3.4866846743 0.0000000000 1.0265435471
1.7335901299 0.0000000000 1.1052912545
1.2894245375 0.0000000000 0.8449369077
1.7641272293 0.0000000000 0.4966910713
2.5084529621 0.0000000000 0.4862616352
1.5550352986 0.0000000000 1.2486801980
2.6713963830 0.0000000000 0.6695834297
0.4275342534 0.0000000000 0.5742508518
4.3198007357 0.0000000000 0.9441806123
1.7361651684 0.0000000000 0.8517121770
1.0824867950 0.0000000000 0.7349306667
1.5420678520 0.0000000000 0.7520493513
1.4150376185 0.0000000000 0.9206997473
0.5890849473 0.0000000000 0.8724707401
3.2003319917 0.0000000000 1.3168204278
0.1312954902 0.0000000000 0.3790308415
2.4937550820 0.0000000000 0.8287960292
3.1882572119 0.0000000000 1.4311350564
0.7748917631 0.0000000000 0.7813523613
1.3970886279 0.0000000000 0.7596118927
3.0110354039 0.0000000000 0.7849018412
3.9364170160 0.0000000000 0.7456088626
3.2104411825 0.0000000000 0.7953801330
0.6625387928 0.0000000000 0.2172541785
2.4514193160 0.0000000000 0.8835378313
1.0866531955 0.0000000000 1.1651881151
0.9335714114 0.0000000000 0.4987826046
4.6074284909 0.0000000000 1.3059449740
2.0623144576 0.0000000000 1.3678893586
3.6164613691 0.0000000000 0.7101020819
3.3250448254 0.0000000000 0.7148016997
3.9905765640 0.0000000000 0.8347310587
3.8045629096 0.0000000000 0.9305130006
2.3003418799 0.0000000000 1.3589970767
3.3199782611 0.0000000000 1.2005067085
1.8563233020 0.0000000000 0.5757345782
1.9562227027 0.0000000000 0.8998723516
4.9999715638 0.0000000000 1.2499024534
2.8391592610 0.0000000000 1.0477192361
2.2234782506 0.0000000000 1.4365290214
1.9736428672 0.0000000000 1.0147514997
2.7528999793 0.0000000000 1.4279929410
0.3313564875 0.0000000000 0.1086966621
0.4899073393 0.0000000000 0.7809270292
5.1672558221 0.0000000000 1.3193597465
4.4345933285 0.0000000000 1.3538644631
0.4753143555 0.0000000000 1.4419328950
6.0873297250 0.0000000000 1.3161471876
5.3512404225 0.0000000000 1.2698524563
1.9988553060 0.0000000000 0.4947173542
0.6194414794 0.0000000000 0.8322862930
0.9858777560 0.0000000000 0.3568151182
4.4636589916 0.0000000000 1.4334046169
6.5754516253 0.0000000000 1.4774070546
1.5967045752 0.0000000000 0.8341179471
4.7105701644 0.0000000000 1.3063954725
2.4509558239 0.0000000000 1.4129208616
0.3960644409 0.0000000000 0.9973201398
6.0567052929 0.0000000000 1.2094326942
6.4544972804 0.0000000000 1.4263628457
2.1991156604 0.0000000000 0.4743890073
3.0660389914 0.0000000000 0.5844280942
5.6652599546 0.0000000000 1.3518829064
3.5623713335 0.0000000000 0.8203156439
2.3564742451 0.0000000000 1.3884062474
2.0936027351 0.0000000000 1.4674871210
0.1461361985 0.0000000000 0.4252053534
5.3330929105 0.0000000000 1.2082296359
5.7487536267 0.0000000000 1.4466259824
6.5478439672 0.0000000000 1.2500100102
3.9032090040 0.0000000000 1.3276841531
1.2445001916 0.0000000000 0.3350911857
0.9211316392 0.0000000000 0.2087490986
6.9886511589 0.0000000000 1.4801676912
7.0609366204 0.0000000000 1.4568582243
0.8401915443 0.0000000000 0.1659927722
0.8629757353 0.0000000000 0.4770426751
0.1498547983 0.0000000000 0.7315601456
0.9346959249 0.0000000000 1.1580749209
3.9214651847 0.0000000000 0.7919636297
4.0373746616 0.0000000000 0.8500713508
2.3697052775 0.0000000000 0.8441461200
1.5520922169 0.0000000000 0.6288230403
0.4026036577 0.0000000000 1.4503914448
1.3485773574 0.0000000000 1.2904962832
6.2825974698 0.0000000000 1.2457001576
3.9967959861 0.0000000000 1.2324295881
5.0030556852 0.0000000000 0.9692460673
2.3507145909 0.0000000000 0.9700370335
0.5259942548 0.0000000000 1.3184643736
4.4316482114 0.0000000000 1.2398967092
0.5707855620 0.0000000000 0.9364769149
0.1664107828 0.0000000000 0.8693604103
2.7995500138 0.0000000000 1.4675560684
1.0358728227 0.0000000000 0.7835421608
4.8230893307 0.0000000000 1.4231246403
4.5238597235 0.0000000000 1.0693902239
5.4361606458 0.0000000000 1.1741836149
0.3121425006 0.0000000000 0.3097276173
4.6391089994 0.0000000000 1.0017370158
5.4411159408 0.0000000000 1.3600962190
0.7430884066 0.0000000000 0.1997075009
1.9909627067 0.0000000000 1.3968978639
4.8403674201 0.0000000000 1.2440483088
4.2437548169 0.0000000000 0.9213470117
2.2912649941 0.0000000000 0.5355139994
4.1538737374 0.0000000000 1.0411619071
0.4649759634 0.0000000000 0.2832467408
3.8330587417 0.0000000000 1.0619984475
2.8431154992 0.0000000000 1.1267799929
5.1323992585 0.0000000000 0.9840162153
4.5345722447 0.0000000000 1.3241922440
3.3435353198 0.0000000000 0.6653818974
5.0646446439 0.0000000000 1.2851029176
2.5292682538 0.0000000000 1.3383161426
1.5165307368 0.0000000000 1.1323883494
0.8900627230 0.0000000000 0.7290810777
4.6078357416 0.0000000000 0.9019369637
2.5719862403 0.0000000000 1.0483398181
3.9515675320 0.0000000000 1.3728545648
1.1558608978 0.0000000000 1.2641701516
5.6149218335 0.0000000000 1.3911081623
6.5625003371 0.0000000000 1.3514352494
3.5424652592 0.0000000000 0.8937745635
4.7143292158 0.0000000000 1.3692271257
5.2641674758 0.0000000000 1.4601759977
5.2557734751 0.0000000000 1.1103891578
3.7972721941 0.0000000000 0.8241401172
4.8012115566 0.0000000000 1.1849852113
2.1313044889 0.0000000000 1.0884886515
2.9426656465 0.0000000000 1.1437306509
4.6535599511 0.0000000000 1.4967781766
2.4972941452 0.0000000000 0.9329880873
1.8935679690 0.0000000000 0.5440669155
2.7687148518 0.0000000000 1.3855333591
1.5173075328 0.0000000000 1.2833021438
3.1394572463 0.0000000000 0.7367742624
0.7505412375 0.0000000000 0.6940997130
5.3879028970 0.0000000000 1.3778920869
1.3402925636 0.0000000000 0.2454666616
1.9728950506 0.0000000000 1.4527464422
3.4717496022 0.0000000000 1.2629823579
0.2895424079 0.0000000000 1.2665748077
0.3877872521 0.0000000000 0.0931202872
1.5979198342 0.0000000000 0.4582429361
5.5002926846 0.0000000000 1.1612914080
2.6513627521 0.0000000000 0.8762443697
1.1204771177 0.0000000000 0.4277901244
2.9005909232 0.0000000000 0.7050433518
0.2281747087 0.0000000000 0.2706881032
1.7603591846 0.0000000000 0.6881926042
1.2925495351 0.0000000000 0.3651981194
0.9764009327 0.0000000000 1.4154719808
4.7703896180 0.0000000000 1.4696653575
7.5190410874 0.0000000000 1.4395581150
1.7403414621 0.0000000000 1.3682744705
0.7320673895 0.0000000000 0.1354772391
4.6121503469 0.0000000000 1.0466399151
2.9832544192 0.0000000000 1.0003791422
2.4238242544 0.0000000000 1.3291004740
0.1543866030 0.0000000000 0.5608325929
3.6064142884 0.0000000000 0.9750454718
0.7724490647 0.0000000000 0.4735330529
4.1697304013 0.0000000000 0.9003718144
1.7001283345 0.0000000000 0.4251109466
2.7930050907 0.0000000000 1.3239214554
1.4627542304 0.0000000000 1.4175375097
2.8445819324 0.0000000000 1.2418874628
7.2351852064 0.0000000000 1.4252475308
3.7398101559 0.0000000000 0.7556252746
3.4501053110 0.0000000000 1.1437803173
3.1634081419 0.0000000000 1.2302029269
0.6675781134 0.0000000000 0.3666429638
0.5282143508 0.0000000000 0.9217826700
1.6065324513 0.0000000000 0.6201345840
0.5943989534 0.0000000000 1.0341362802
2.3408612121 0.0000000000 0.4699912789
4.0164144675 0.0000000000 1.1736039262
4.6797136907 0.0000000000 1.2587446049
1.1487621275 0.0000000000 1.3119590106
1.3071275560 0.0000000000 0.6338649628
1.8526975335 0.0000000000 1.1657111092
0.1987682071 0.0000000000 0.4501581472
2.1786270290 0.0000000000 1.4950280955
0.8588950680 0.0000000000 0.2061378308
4.4868151144 0.0000000000 0.8621196131
5.8676673499 0.0000000000 1.3225590861
0.7310833150 0.0000000000 1.2663273105
3.4288905800 0.0000000000 1.2047936343
3.6703392517 0.0000000000 0.7546255328
6.1766457063 0.0000000000 1.3709426126
1.7268261221 0.0000000000 0.7168663381
5.7181823541 0.0000000000 1.3213127649
5.8526300293 0.0000000000 1.2553931445
0.5307065939 0.0000000000 0.1856140048
0.4103663250 0.0000000000 0.3976413634
1.5022340167 0.0000000000 0.6450001351
1.1817454757 0.0000000000 0.3798420364
0.7786435628 0.0000000000 0.9827921294
0.4543130671 0.0000000000 0.6505207290
0.5742187568 0.0000000000 0.2022243948
5.8288970403 0.0000000000 1.1140257462
4.0744361378 0.0000000000 1.2398924644
2.3853238286 0.0000000000 1.4582171721
0.4581175507 0.0000000000 0.3762473977
2.7161801539 0.0000000000 1.1126782197
1.4060467483 0.0000000000 0.5929124815
5.4219163661 0.0000000000 1.0937564129
1.8126671286 0.0000000000 1.2327992021
0.5652950794 0.0000000000 0.2711587004
0.4707740714 0.0000000000 1.2413431370
0.3121888953 0.0000000000 0.9115190602
3.9697051688 0.0000000000 1.0679378881
2.5574980304 0.0000000000 1.1676335912
4.1753989154 0.0000000000 0.8030137508
2.4605695646 0.0000000000 1.2514779658
5.2026923534 0.0000000000 1.4722248088
0.2512725863 0.0000000000 0.6399638165
2.5731774926 0.0000000000 0.5889692620
3.0796763454 0.0000000000 0.7117347713
6.1280467649 0.0000000000 1.4580361446
1.2092263006 0.0000000000 0.5821131510
0.9661516469 0.0000000000 0.7201669839
