5.1586875916 0.0000000000 0.8908482194
7.2771859169 0.0000000000 0.8948035240
7.7420454025 0.0000000000 1.3755594492
0.9360952973 0.0000000000 0.1216372997
4.5916552544 0.0000000000 0.0521714054
5.8615312576 0.0000000000 0.4865704179
2.4043431282 0.0000000000 0.3673086464
6.9410505295 0.0000000000 0.2233584374
6.2738814354 0.0000000000 0.9696881175
6.7192654610 0.0000000000 0.8406189084
7.0525298119 0.0000000000 0.1125158370
5.9657726288 0.0000000000 0.3379252851
1.6836084127 0.0000000000 0.1689466834
7.0281071663 0.0000000000 0.7183627486
6.4571080208 0.0000000000 1.1715720892
4.8981356621 0.0000000000 0.8273670077
5.7623887062 0.0000000000 0.7663728595
4.8987979889 0.0000000000 0.9131718278
2.8909852505 0.0000000000 0.3158947527
4.5103263855 0.0000000000 0.5635594726
4.5413980484 0.0000000000 0.0553359650
6.3815279007 0.0000000000 0.0672952682
3.6452054977 0.0000000000 0.0716895536
6.4981298447 0.0000000000 1.2021836042
1.6352567673 0.0000000000 0.1033921093
4.1837463379 0.0000000000 0.1968795806
5.4913249016 0.0000000000 0.5187172294
6.3671793938 0.0000000000 0.9749361873
7.5871953964 0.0000000000 0.2593879402
5.9515261650 0.0000000000 0.0536294207
3.4235942364 0.0000000000 0.2272874266
4.7217884064 0.0000000000 0.5834147930
7.7268505096 0.0000000000 0.8665367365
7.8746185303 0.0000000000 0.2114895433
4.0191931725 0.0000000000 0.5106138587
2.9515943527 0.0000000000 0.0586589314
6.2393884659 0.0000000000 1.0075320005
6.5905079842 0.0000000000 0.7012698650
7.0100617409 0.0000000000 0.5298384428
2.4868237972 0.0000000000 0.4028867781
0.2734302580 0.0000000000 0.0236107185
3.6300091743 0.0000000000 0.1758613288
0.9711009264 0.0000000000 0.1211178973
6.3841609955 0.0000000000 0.7563844323
4.2925429344 0.0000000000 0.3292341232
5.6071500778 0.0000000000 0.8920205832
3.9698801041 0.0000000000 0.1920085698
7.8221726418 0.0000000000 0.2204921395
4.6879730225 0.0000000000 0.8263296485
6.3612012863 0.0000000000 0.0859244838
4.5783128738 0.0000000000 0.4433986247
2.2333097458 0.0000000000 0.1077841371
7.6036272049 0.0000000000 0.1510431767
7.5314884186 0.0000000000 0.6768459678
1.3225893974 0.0000000000 0.0977870971
4.4898252487 0.0000000000 0.6889262795
7.8100075722 0.0000000000 1.1055748463
7.4018106461 0.0000000000 0.5269950628
5.3567647934 0.0000000000 0.7608051300
6.4366440773 0.0000000000 0.1351607740
6.3374109268 0.0000000000 0.5090110302
4.8722310066 0.0000000000 0.4378910363
4.4527611732 0.0000000000 0.1233303696
7.3891930580 0.0000000000 1.2619842291
6.8614954948 0.0000000000 0.6142809391
4.2048935890 0.0000000000 0.0163103510
7.6094994545 0.0000000000 0.4351805747
6.4410753250 0.0000000000 0.5776016712
7.0694189072 0.0000000000 1.0638619661
7.5893955231 0.0000000000 0.3245658875
4.7437133789 0.0000000000 0.6499255896
6.8177371025 0.0000000000 0.9553640485
6.8308997154 0.0000000000 0.5555667877
6.0330548286 0.0000000000 0.9672262073
5.9052429199 0.0000000000 0.2583869696
5.6886129379 0.0000000000 0.4383104444
0.5186369419 0.0000000000 0.0721599534
2.6879286766 0.0000000000 0.1718427539
7.2249889374 0.0000000000 0.7003874183
6.9519634247 0.0000000000 0.3593640029
6.0293412209 0.0000000000 0.2340524793
6.2462091446 0.0000000000 0.7042168379
7.0310773849 0.0000000000 0.0791576356
7.1357407570 0.0000000000 0.2591445446
7.2722024918 0.0000000000 0.0308262799
5.5376529694 0.0000000000 0.2710664868
6.2461843491 0.0000000000 1.1113444567
6.6269874573 0.0000000000 0.1057315469
6.6422743797 0.0000000000 0.5594409704
2.6679325104 0.0000000000 0.0476176143
7.5725259781 0.0000000000 0.8610399961
5.6276221275 0.0000000000 0.6497655511
3.2086989880 0.0000000000 0.4777036607
5.7130141258 0.0000000000 0.9310299754
4.3392710686 0.0000000000 0.5534532070
7.2855234146 0.0000000000 0.2640159726
1.7356437445 0.0000000000 0.0951727703
5.8913202286 0.0000000000 0.9128248692
5.9526581764 0.0000000000 0.9157481194
4.3928294182 0.0000000000 0.6424070001
5.2152495384 0.0000000000 0.3964045048
5.7989997864 0.0000000000 0.7713585496
4.4683127403 0.0000000000 0.8050691485
4.9340152740 0.0000000000 0.8486700654
7.8703465462 0.0000000000 0.5176512599
4.2356739044 0.0000000000 0.7094949484
7.5479049683 0.0000000000 1.3760881424
2.3198368549 0.0000000000 0.2111376971
7.8248023987 0.0000000000 0.0398152694
6.5431699753 0.0000000000 0.4194514751
1.8364404440 0.0000000000 0.1952439845
7.6657443047 0.0000000000 0.0935912952
7.3468647003 0.0000000000 0.2240061909
7.6712746620 0.0000000000 0.4554553926
7.2150635719 0.0000000000 0.4762857854
2.8133478165 0.0000000000 0.4055553675
4.1425762177 0.0000000000 0.7394658923
6.3413248062 0.0000000000 0.2082469016
7.2680497169 0.0000000000 0.3646517098
6.7761349678 0.0000000000 0.6509755254
7.6595239639 0.0000000000 1.0059049129
6.7274665833 0.0000000000 0.6991721988
4.1092982292 0.0000000000 0.2970195711
5.9226078987 0.0000000000 0.0732195154
6.8724055290 0.0000000000 1.0155119896
5.7907190323 0.0000000000 0.8229730129
6.1551699638 0.0000000000 0.2159154564
6.6056780815 0.0000000000 1.1473678350
6.6411628723 0.0000000000 0.4116369784
1.6846215725 0.0000000000 0.1501187682
7.0648088455 0.0000000000 0.0569053106
1.3914905787 0.0000000000 0.2269408554
5.0126886368 0.0000000000 0.2295737416
3.1215777397 0.0000000000 0.2447512597
5.7495937347 0.0000000000 0.3078667521
4.4264340401 0.0000000000 0.1909770072
2.0164098740 0.0000000000 0.2259791493
6.1381096840 0.0000000000 0.6834552884
6.6942105293 0.0000000000 0.6549270153
2.8447427750 0.0000000000 0.4799191058
7.6242341995 0.0000000000 0.4423208237
5.0308976173 0.0000000000 0.7803930640
3.8389887810 0.0000000000 0.5268799663
3.1316218376 0.0000000000 0.3971493840
7.0556077957 0.0000000000 0.4560794532
3.2668988705 0.0000000000 0.3686807454
3.2149193287 0.0000000000 0.0205671024
6.5515403748 0.0000000000 0.2070067823
7.4096522331 0.0000000000 0.6078670025
5.5325970650 0.0000000000 0.3349144757
6.0628576279 0.0000000000 0.0315627716
3.3062772751 0.0000000000 0.2740800083
5.0962438583 0.0000000000 0.3092660010
6.5422363281 0.0000000000 0.5613446832
7.6521244049 0.0000000000 0.5659778118
6.8269104958 0.0000000000 0.9853019714
7.1664180756 0.0000000000 0.3722759187
5.5880804062 0.0000000000 0.0368000008
7.5496716499 0.0000000000 0.4968992472
7.3505864143 0.0000000000 0.2728511989
2.0360579491 0.0000000000 0.2402183115
4.5586400032 0.0000000000 0.6202641726
7.2937741280 0.0000000000 0.8213120103
2.9350399971 0.0000000000 0.4186942577
4.6901612282 0.0000000000 0.4620824754
6.6283740997 0.0000000000 0.2748797834
7.3139643669 0.0000000000 1.3450241089
5.4253115654 0.0000000000 0.0567640960
2.8261206150 0.0000000000 0.4478720725
5.7920508385 0.0000000000 0.7919223309
4.8677601814 0.0000000000 0.8986063004
6.4098868370 0.0000000000 0.0057281265
5.3385658264 0.0000000000 0.6215165854
5.5716705322 0.0000000000 0.3699646890
7.2177309990 0.0000000000 1.0424796343
5.7424783707 0.0000000000 0.9353693724
7.2645287514 0.0000000000 0.0435509905
2.0348155499 0.0000000000 0.0298455358
2.2937359810 0.0000000000 0.2394967377
5.0778164864 0.0000000000 0.5902742147
6.7936601639 0.0000000000 0.4110594690
6.2915983200 0.0000000000 0.4463141263
3.4951822758 0.0000000000 0.6031419635
6.7980389595 0.0000000000 1.1699861288
7.7232723236 0.0000000000 1.0136853456
5.6557707787 0.0000000000 0.6425726414
6.7603049278 0.0000000000 0.6523730159
7.3634805679 0.0000000000 0.8859876990
7.8463411331 0.0000000000 0.9814912677
4.2448110580 0.0000000000 0.3734218478
1.9336626530 0.0000000000 0.1765466183
5.0868811607 0.0000000000 0.8223325014
6.5858664513 0.0000000000 0.5985506177
7.3930234909 0.0000000000 1.0568207502
7.6878032684 0.0000000000 0.6749412417
6.8620290756 0.0000000000 1.2885968685
6.9190993309 0.0000000000 1.1950417757
4.5739884377 0.0000000000 0.4614554942
7.2426462173 0.0000000000 0.7133903503
6.2031579018 0.0000000000 0.0304822754
7.2856597900 0.0000000000 1.0267509222
6.4452037811 0.0000000000 0.3029124439
4.1914701462 0.0000000000 0.4982537329
4.3326301575 0.0000000000 0.1611266285
6.3550124168 0.0000000000 0.8689188361
5.5105667114 0.0000000000 0.9090460539
6.8516602516 0.0000000000 0.1379410625
2.7465701103 0.0000000000 0.2232789546
4.2235140800 0.0000000000 0.0258069728
4.9758009911 0.0000000000 0.8805559278
7.3228111267 0.0000000000 0.6857025027
7.5172886848 0.0000000000 0.6967719793
6.4320411682 0.0000000000 0.8881055117
6.4498457909 0.0000000000 0.5529383421
4.0695705414 0.0000000000 0.3284732997
3.0215682983 0.0000000000 0.2891933322
5.6551995277 0.0000000000 0.9198803902
6.4293699265 0.0000000000 0.9588776827
3.4692904949 0.0000000000 0.2458865643
7.7151794434 0.0000000000 1.4136487246
6.9278540611 0.0000000000 1.1583714485
5.9287972450 0.0000000000 0.6744673848
6.8792757988 0.0000000000 0.7722020149
5.7700219154 0.0000000000 1.0144630671
4.2472438812 0.0000000000 0.4572929442
3.6784188747 0.0000000000 0.1980771422
6.9535617828 0.0000000000 0.2303938270
5.9887423515 0.0000000000 0.5614021420
7.3891558647 0.0000000000 0.9019593000
6.8334808350 0.0000000000 0.3032333553
5.8954787254 0.0000000000 0.7940041423
4.6506295204 0.0000000000 0.2549143732
4.7071447372 0.0000000000 0.6990126967
3.4468317032 0.0000000000 0.6199463010
7.1507244110 0.0000000000 0.9356845617
4.7052779198 0.0000000000 0.3965595365
7.1763610840 0.0000000000 0.1893350184
5.8400402069 0.0000000000 0.8665969372
1.5061240196 0.0000000000 0.0264398381
4.4891991615 0.0000000000 0.0557018109
6.1032109261 0.0000000000 0.5057582259
7.6221332550 0.0000000000 0.2757034004
3.9882912636 0.0000000000 0.4991811514
5.9666070938 0.0000000000 0.3624925315
5.7928519249 0.0000000000 0.9262723923
5.4339675903 0.0000000000 0.4285116792
4.6443324089 0.0000000000 0.6523071527
6.6170082092 0.0000000000 1.1197807789
6.3530869484 0.0000000000 0.7407526374
3.8893897533 0.0000000000 0.6695604920
4.7997798920 0.0000000000 0.5873764157
0.7537074685 0.0000000000 0.1196585745
6.9565663338 0.0000000000 0.8547562361
7.7297697067 0.0000000000 0.2465282232
4.9281268120 0.0000000000 0.3325657845
6.0941128731 0.0000000000 0.6441760063
7.4829936028 0.0000000000 0.2566530108
6.7157301903 0.0000000000 0.9348809719
5.2175598145 0.0000000000 0.6914135814
6.0981512070 0.0000000000 0.9310460687
2.4769959450 0.0000000000 0.1327449381
6.8774619102 0.0000000000 0.1568387747
6.6202001572 0.0000000000 1.0796655416
4.1893830299 0.0000000000 0.4481667876
7.3464484215 0.0000000000 0.5871056318
5.3650312424 0.0000000000 0.6697642803
3.2898073196 0.0000000000 0.5307920575
7.2760028839 0.0000000000 0.6227563620
4.0961813927 0.0000000000 0.6022934914
6.8104128838 0.0000000000 1.0662324429
2.7272615433 0.0000000000 0.4552464485
4.5368981361 0.0000000000 0.1110009253
4.2947864532 0.0000000000 0.3770041168
6.0135879517 0.0000000000 0.4065354764
3.0262570381 0.0000000000 0.3243793845
5.4139642715 0.0000000000 0.0429778174
6.9824395180 0.0000000000 1.2558323145
0.5263640285 0.0000000000 0.0188120995
7.1036047935 0.0000000000 0.3364005685
5.9478373528 0.0000000000 0.4259978533
7.2891173363 0.0000000000 0.1192711368
5.0077376366 0.0000000000 0.6485264897
1.6699337959 0.0000000000 0.1063299924
7.8682465553 0.0000000000 0.7281512022
7.2750000954 0.0000000000 1.2506444454
2.8977065086 0.0000000000 0.3465771079
4.7822241783 0.0000000000 0.0549944900
7.3704128265 0.0000000000 0.0173461381
7.2569489479 0.0000000000 1.1565338373
4.3832826614 0.0000000000 0.3126309216
5.6283206940 0.0000000000 0.1428866833
4.7534494400 0.0000000000 0.6834632754
5.2963495255 0.0000000000 0.7203220129
7.1658158302 0.0000000000 0.8594462276
4.2476449013 0.0000000000 0.0240922607
2.6544146538 0.0000000000 0.3020110130
5.3453450203 0.0000000000 0.4710555971
5.0403900146 0.0000000000 0.5213645697
5.1217718124 0.0000000000 0.8325288296
6.7927546501 0.0000000000 0.7902557254
2.6840703487 0.0000000000 0.3366957009
5.5949735641 0.0000000000 0.6538493633
0.9707170725 0.0000000000 0.0459013619
5.0257544518 0.0000000000 0.4771762490
4.1661973000 0.0000000000 0.5420001149
6.8234438896 0.0000000000 0.7280204296
5.7729120255 0.0000000000 0.4447291791
5.7543954849 0.0000000000 0.3811577260
3.1934413910 0.0000000000 0.0906335711
7.2225837708 0.0000000000 0.1632217914
6.0898447037 0.0000000000 1.0858442783
5.9400420189 0.0000000000 0.6494238973
7.0264992714 0.0000000000 0.9118762016
5.3758282661 0.0000000000 0.5965836644
7.4012618065 0.0000000000 0.5577182174
3.6563091278 0.0000000000 0.3452272415
6.2075915337 0.0000000000 0.6898068786
6.4283795357 0.0000000000 1.1332280636
5.4978637695 0.0000000000 0.7381862998
3.0042157173 0.0000000000 0.0968037024
2.8688049316 0.0000000000 0.2345541865
6.3349084854 0.0000000000 0.9312912226
6.3995523453 0.0000000000 0.1718023419
5.1856684685 0.0000000000 0.8754213452
4.0308327675 0.0000000000 0.1908407062
0.9506108761 0.0000000000 0.1376258135
3.0400161743 0.0000000000 0.1690644324
4.0841760635 0.0000000000 0.4489341378
6.4166388512 0.0000000000 1.1426676512
5.0914115906 0.0000000000 0.1567097306
5.8486533165 0.0000000000 0.7517848611
2.7607371807 0.0000000000 0.3189009428
6.8572134972 0.0000000000 0.7322667837
6.6907658577 0.0000000000 0.9099482894
2.0818202496 0.0000000000 0.0455021672
5.0972819328 0.0000000000 0.8491200805
3.3497354984 0.0000000000 0.5160773396
6.9035115242 0.0000000000 0.8829817772
1.4262918234 0.0000000000 0.0666365996
7.2299604416 0.0000000000 0.0476255380
6.0840163231 0.0000000000 0.7330338955
3.4167189598 0.0000000000 0.5125547647
5.3308262825 0.0000000000 0.2551053166
5.4663047791 0.0000000000 0.7189981341
5.3816628456 0.0000000000 0.6293420792
7.0756616592 0.0000000000 1.2121373415
2.9991843700 0.0000000000 0.3533163667
7.7537627220 0.0000000000 0.6207666993
5.5087680817 0.0000000000 0.0372152478
7.1934270859 0.0000000000 0.8629115820
3.4314360619 0.0000000000 0.0132472077
5.6831941605 0.0000000000 0.3385468721
3.3763785362 0.0000000000 0.1389755756
3.4930112362 0.0000000000 0.5712349415
7.6160120964 0.0000000000 0.2621483207
5.2155742645 0.0000000000 0.0496101938
6.6363539696 0.0000000000 0.4447276890
4.9015965462 0.0000000000 0.4302099645
3.6353127956 0.0000000000 0.1336413175
6.4221487045 0.0000000000 0.9294774532
3.5736024380 0.0000000000 0.4976555109
4.8349061012 0.0000000000 0.3055334687
6.3111257553 0.0000000000 0.6522237062
5.6407570839 0.0000000000 0.8262469769
3.1467018127 0.0000000000 0.0704723075
3.8313274384 0.0000000000 0.3938292563
2.2829446793 0.0000000000 0.3969416618
4.3351492882 0.0000000000 0.5008907318
3.3438708782 0.0000000000 0.2615008056
4.9901375771 0.0000000000 0.1381834000
2.2976601124 0.0000000000 0.2890374362
7.1951408386 0.0000000000 1.2293386459
4.9192228317 0.0000000000 0.7576655746
4.1012763977 0.0000000000 0.3326171041
3.7181832790 0.0000000000 0.5273846984
6.6732916832 0.0000000000 0.9032112956
2.5725769997 0.0000000000 0.3022703230
7.3983817101 0.0000000000 0.7589595914
1.5342804193 0.0000000000 0.1212879345
6.8219389915 0.0000000000 0.3460943997
6.4312782288 0.0000000000 1.1521930695
6.5847258568 0.0000000000 0.5761463642
2.7661309242 0.0000000000 0.4305707514
4.9044814110 0.0000000000 0.3745674193
3.8967840672 0.0000000000 0.4443883002
3.4204428196 0.0000000000 0.5353741646
7.2605123520 0.0000000000 0.7206750512
4.9442181587 0.0000000000 0.6643326879
6.5955166817 0.0000000000 1.0518908501
4.7663640976 0.0000000000 0.8520160317
5.2117662430 0.0000000000 0.3420983255
2.3890085220 0.0000000000 0.2963942885
4.2536244392 0.0000000000 0.3430786729
6.1345467567 0.0000000000 0.2148355544
2.4059636593 0.0000000000 0.2900371850
3.5838770866 0.0000000000 0.1344495267
6.7593517303 0.0000000000 0.9668343663
6.6587972641 0.0000000000 0.8994199634
6.9571886063 0.0000000000 0.1898557246
7.2833576202 0.0000000000 1.3541039228
7.1836433411 0.0000000000 1.2778227329
3.3950374126 0.0000000000 0.3662560582
6.9476208687 0.0000000000 0.2506923378
7.1769881248 0.0000000000 0.5664914250
5.7588829994 0.0000000000 0.6157451272
6.5254774094 0.0000000000 0.1159647480
2.6296439171 0.0000000000 0.3098219633
3.8747248650 0.0000000000 0.2832610607
5.5585408211 0.0000000000 0.1580599993
6.6967825890 0.0000000000 1.1218503714
1.7287107706 0.0000000000 0.3095150292
6.8456134796 0.0000000000 0.3122658730
7.2042627335 0.0000000000 0.3830413222
4.5789036751 0.0000000000 0.3215997815
6.7156500816 0.0000000000 0.6416406035
7.8701472282 0.0000000000 0.0271482561
6.7001185417 0.0000000000 1.0091110468
2.7995929718 0.0000000000 0.0540127158
2.2316157818 0.0000000000 0.1832629293
7.1046547890 0.0000000000 0.4512641132
7.7518177032 0.0000000000 0.0409232751
4.6980957985 0.0000000000 0.5259954929
7.0378952026 0.0000000000 0.4553650022
2.8765664101 0.0000000000 0.1344911009
2.8386948109 0.0000000000 0.0661173612
4.1545805931 0.0000000000 0.3919433057
4.9568285942 0.0000000000 0.4728858769
5.6232094765 0.0000000000 0.4541497231
7.3708081245 0.0000000000 1.3893132210
1.5735195875 0.0000000000 0.1833418459
2.6642396450 0.0000000000 0.3276937306
7.7838344574 0.0000000000 0.4828580022
1.5837222338 0.0000000000 0.2154616565
3.8070831299 0.0000000000 0.3906703591
5.4618954659 0.0000000000 0.3335468471
7.3060402870 0.0000000000 0.8568506837
5.4801106453 0.0000000000 0.0720559806
7.0326895714 0.0000000000 0.4971390069
5.3606805801 0.0000000000 0.8224223852
6.4090657234 0.0000000000 0.9662523270
7.4705600739 0.0000000000 0.3554347754
7.4541125298 0.0000000000 1.4107023478
4.3324341774 0.0000000000 0.5835819840
6.4298105240 0.0000000000 0.0824487805
5.0665016174 0.0000000000 0.8362723589
4.7555618286 0.0000000000 0.5421146154
5.6841397285 0.0000000000 0.5544321537
3.9174418449 0.0000000000 0.5802505612
1.4026362896 0.0000000000 0.0723835900
7.5689725876 0.0000000000 0.2632785439
5.1689305305 0.0000000000 0.8789862990
7.1706042290 0.0000000000 0.4485089779
4.1335778236 0.0000000000 0.6502707601
5.8499274254 0.0000000000 0.9627171159
7.4951939583 0.0000000000 0.6542631984
5.2405748367 0.0000000000 0.1128191650
1.7872657776 0.0000000000 0.2194251120
4.9865922928 0.0000000000 0.2569395900
1.6197763681 0.0000000000 0.2248511016
3.8526349068 0.0000000000 0.2509040236
6.9849176407 0.0000000000 1.2058513165
5.6294517517 0.0000000000 0.9708015919
4.3744664192 0.0000000000 0.5090876222
3.3957908154 0.0000000000 0.1772472262
5.3180637360 0.0000000000 0.3421580493
5.6065731049 0.0000000000 0.0596672222
6.1446018219 0.0000000000 1.1234221458
2.5188884735 0.0000000000 0.1917593777
4.4890904427 0.0000000000 0.1971351951
5.4742722511 0.0000000000 0.0518627241
6.7518458366 0.0000000000 1.1121003628
2.1430337429 0.0000000000 0.1364575326
3.6520888805 0.0000000000 0.1961740851
6.5344338417 0.0000000000 0.7644400597
0.7295477390 0.0000000000 0.0910886973
3.9752964973 0.0000000000 0.5250899196
7.3103318214 0.0000000000 0.7724771500
2.0179939270 0.0000000000 0.0873055086
5.3710074425 0.0000000000 0.4079692960
5.7472605705 0.0000000000 0.8840685487
5.6168980598 0.0000000000 0.8816985488
3.4538702965 0.0000000000 0.3502949774
4.0566225052 0.0000000000 0.6974774599
1.8123742342 0.0000000000 0.0267719515
6.0605845451 0.0000000000 0.9165998101
5.0980730057 0.0000000000 0.6440262794
3.0064861774 0.0000000000 0.5224148035
7.2565054893 0.0000000000 1.2639429569
3.7783362865 0.0000000000 0.1053557172
5.3989534378 0.0000000000 0.5816313624
4.9798712730 0.0000000000 0.3238087893
6.7235279083 0.0000000000 0.3933026791
7.2592687607 0.0000000000 0.8792314529
4.6465549469 0.0000000000 0.6706705093
3.8927834034 0.0000000000 0.5600600839
4.5949835777 0.0000000000 0.5647529364
5.0299987793 0.0000000000 0.6126462817
7.7863445282 0.0000000000 1.3733816147
6.2503509521 0.0000000000 0.7420126200
1.2375975847 0.0000000000 0.0009473966
5.0108389854 0.0000000000 0.9304637313
3.2977001667 0.0000000000 0.2500100136
6.5963082314 0.0000000000 1.1296226978
4.2272033691 0.0000000000 0.6564794183
4.2748446465 0.0000000000 0.5024097562
3.3967449665 0.0000000000 0.5608692169
7.3659071922 0.0000000000 0.7045751810
4.1561832428 0.0000000000 0.3573846817
7.7002816200 0.0000000000 0.5992418528
6.3001446724 0.0000000000 0.6203755140
6.7166204453 0.0000000000 1.2429108620
3.9152262211 0.0000000000 0.6691396236
4.2568073273 0.0000000000 0.5087422729
5.5994892120 0.0000000000 0.5039083362
6.0713782310 0.0000000000 0.4734928310
4.9637036324 0.0000000000 0.1283596754
7.3508324623 0.0000000000 0.2000828981
7.2553939819 0.0000000000 0.4463800490
5.8481059074 0.0000000000 0.6977865696
4.0099048615 0.0000000000 0.6863213181
6.6245760918 0.0000000000 1.0553698540
3.1249022484 0.0000000000 0.2814550400
3.5670003891 0.0000000000 0.5470290780
5.2366108894 0.0000000000 0.1331452429
5.0215668678 0.0000000000 0.3367824554
6.8641891479 0.0000000000 0.5581572652
5.8582482338 0.0000000000 0.3377095163
3.1900153160 0.0000000000 0.5806341767
4.1312627792 0.0000000000 0.5362465978
2.4008398056 0.0000000000 0.2598411441
7.0305294991 0.0000000000 0.6719105244
5.4894695282 0.0000000000 0.0562405176
2.8206720352 0.0000000000 0.0194867048
5.6367182732 0.0000000000 0.2193102837
3.7067871094 0.0000000000 0.4199676812
1.2108807564 0.0000000000 0.0399758331
4.4545269012 0.0000000000 0.2078654021
6.6207575798 0.0000000000 0.3067359328
5.7820124626 0.0000000000 0.3011885583
6.5458202362 0.0000000000 0.9286518097
7.5452938080 0.0000000000 0.9719420671
6.6338086128 0.0000000000 0.1642052978
6.8867073059 0.0000000000 1.1048207283
7.7246317863 0.0000000000 1.0958278179
6.3035283089 0.0000000000 1.0973635912
6.0181446075 0.0000000000 1.0054224730
6.2095932961 0.0000000000 0.1863068640
6.1409759521 0.0000000000 0.0798050836
7.0490398407 0.0000000000 0.2364280671
3.3891835213 0.0000000000 0.2503505647
6.6901454926 0.0000000000 0.9964741468
6.3512744904 0.0000000000 1.0273330212
7.3476929665 0.0000000000 1.1730024815
1.4016379118 0.0000000000 0.0271699056
6.7124681473 0.0000000000 0.1810861528
6.3319125175 0.0000000000 0.7710562944
5.3706784248 0.0000000000 0.1181635782
6.5975427628 0.0000000000 0.7586064339
2.8577156067 0.0000000000 0.2204689831
3.4102494717 0.0000000000 0.3999611437
3.4745917320 0.0000000000 0.5425014496
7.3465971947 0.0000000000 0.9506418705
3.4335362911 0.0000000000 0.5241830349
3.7090072632 0.0000000000 0.1638017595
7.6940302849 0.0000000000 1.0243434906
7.2884297371 0.0000000000 0.2192268968
4.9672122002 0.0000000000 0.4208680391
2.4371902943 0.0000000000 0.1851013899
7.2691917419 0.0000000000 0.9069949985
0.8010913730 0.0000000000 0.0130612729
3.3309521675 0.0000000000 0.0321481302
1.6046783924 0.0000000000 0.0807305202
6.9478459358 0.0000000000 1.2108820677
5.5677852631 0.0000000000 0.9152230620
5.7243270874 0.0000000000 0.8713756204
5.6386809349 0.0000000000 0.8717725873
3.6608147621 0.0000000000 0.0615051016
7.4725451469 0.0000000000 1.3943260908
5.5235915184 0.0000000000 0.5558698177
3.8433086872 0.0000000000 0.6247347593
4.5294537544 0.0000000000 0.2230117023
7.4206781387 0.0000000000 0.2011518329
5.2641892433 0.0000000000 0.5342558622
2.5971021652 0.0000000000 0.0373868719
3.6865165234 0.0000000000 0.5426345468
6.9040956497 0.0000000000 0.5503214002
7.3654003143 0.0000000000 1.2150774002
2.9534687996 0.0000000000 0.2380557507
7.8415956497 0.0000000000 0.6361126900
7.8296022415 0.0000000000 0.9782482982
7.0911297798 0.0000000000 1.1805384159
7.2763237953 0.0000000000 1.0633683205
5.0309171677 0.0000000000 0.8098503947
7.3213539124 0.0000000000 1.1742476225
2.5135638714 0.0000000000 0.4298086166
4.1822514534 0.0000000000 0.3241444528
6.5883216858 0.0000000000 1.0837937593
6.8285298347 0.0000000000 0.1786552370
5.3997120857 0.0000000000 0.1209037080
6.0259771347 0.0000000000 0.5610588193
6.5644202232 0.0000000000 0.2669843137
5.3980364799 0.0000000000 0.5977334380
5.6433196068 0.0000000000 0.0659382492
7.4457635880 0.0000000000 1.1521015167
7.8738908768 0.0000000000 0.1524871141
3.2274839878 0.0000000000 0.3488708735
7.4767971039 0.0000000000 0.5355460644
2.1838357449 0.0000000000 0.0426446162
2.1734182835 0.0000000000 0.0928049311
5.9835801125 0.0000000000 0.2774353325
6.4580330849 0.0000000000 0.9995904565
6.6201319695 0.0000000000 0.9691408873
4.7717514038 0.0000000000 0.2043743283
4.6149611473 0.0000000000 0.3434526622
5.9096641541 0.0000000000 0.0467303135
6.3442158699 0.0000000000 0.9753553867
2.1417357922 0.0000000000 0.3414586782
7.7657756805 0.0000000000 0.3119682968
6.9835257530 0.0000000000 0.7412668467
3.2680525780 0.0000000000 0.0327699110
5.6615157127 0.0000000000 0.4354201853
2.8810677528 0.0000000000 0.2085677236
3.0379290581 0.0000000000 0.3400603533
3.3870608807 0.0000000000 0.6065016985
6.4843015671 0.0000000000 0.5487908125
2.3120136261 0.0000000000 0.1778923124
7.6081624031 0.0000000000 1.2372127771
4.3935008049 0.0000000000 0.7330245376
6.7266621590 0.0000000000 0.6000241637
5.7850728035 0.0000000000 0.4870468974
6.0200715065 0.0000000000 0.1535137296
7.5065717697 0.0000000000 1.2511317730
7.7411613464 0.0000000000 0.7770984769
5.4275059700 0.0000000000 0.2886564136
1.4989235401 0.0000000000 0.2611383200
5.4573059082 0.0000000000 0.1495911479
6.5334873199 0.0000000000 1.0775169134
3.1837334633 0.0000000000 0.5511729717
3.4671678543 0.0000000000 0.0582583100
5.6179523468 0.0000000000 0.5198960900
5.3813071251 0.0000000000 0.3310658634
6.8719291687 0.0000000000 0.0749697089
2.4413232803 0.0000000000 0.0806928948
4.0646429062 0.0000000000 0.0955093503
5.6730499268 0.0000000000 0.0392913520
7.5897960663 0.0000000000 0.1705837548
7.8293495178 0.0000000000 0.4255575836
5.5018310547 0.0000000000 0.7730336189
5.9937005043 0.0000000000 1.0543289185
3.5692000389 0.0000000000 0.2951586246
2.5025265217 0.0000000000 0.0558232255
7.2162995338 0.0000000000 1.2814112902
3.2706718445 0.0000000000 0.0138464672
5.3079667091 0.0000000000 0.1119670272
7.4713931084 0.0000000000 0.7986822128
5.9718494415 0.0000000000 0.8230596185
5.2282409668 0.0000000000 0.6165190339
5.8596515656 0.0000000000 0.4657165408
7.1971631050 0.0000000000 0.0389465392
2.6439867020 0.0000000000 0.0132498341
6.1095075607 0.0000000000 0.2973239720
4.3647675514 0.0000000000 0.4493163824
3.3196921349 0.0000000000 0.5683162808
7.5373616219 0.0000000000 0.0292510167
6.8036966324 0.0000000000 0.8872288465
7.8562245369 0.0000000000 0.2990206480
7.5104112625 0.0000000000 0.8298215270
6.0899930000 0.0000000000 0.9926246405
4.7448701859 0.0000000000 0.7081013322
6.4319515228 0.0000000000 0.5921003819
6.0761413574 0.0000000000 1.1460192204
5.9562230110 0.0000000000 0.0918786749
6.4908232689 0.0000000000 0.3241812587
7.5543575287 0.0000000000 0.7736710310
3.3633809090 0.0000000000 0.1191844940
6.8543076515 0.0000000000 0.1986779869
7.6242127419 0.0000000000 1.4367536306
5.5099883080 0.0000000000 0.0897439495
5.9077892303 0.0000000000 0.7832028866
7.1213684082 0.0000000000 0.2965838313
4.9632272720 0.0000000000 0.3498491943
2.4679822922 0.0000000000 0.3197724223
7.4602699280 0.0000000000 0.1649315357
7.4350991249 0.0000000000 1.0711894035
3.7000627518 0.0000000000 0.1344891042
7.8716754913 0.0000000000 1.3841730356
6.5145268440 0.0000000000 0.6211717725
1.7110545635 0.0000000000 0.2501932681
7.8459353447 0.0000000000 1.2286798954
6.0982427597 0.0000000000 0.2503496706
2.9850046635 0.0000000000 0.3251860440
4.5356302261 0.0000000000 0.0799837336
7.4727163315 0.0000000000 0.7744182348
7.7807173729 0.0000000000 0.7291650772
6.0325288773 0.0000000000 0.1873264909
4.6383581161 0.0000000000 0.0152425701
7.8323068619 0.0000000000 1.0330795050
2.8124358654 0.0000000000 0.3866574764
6.5130319595 0.0000000000 0.6747155786
5.2862501144 0.0000000000 0.8804994822
7.5285706520 0.0000000000 0.6383927464
7.5490279198 0.0000000000 0.3005128503
7.7300863266 0.0000000000 0.4675453305
4.4813470840 0.0000000000 0.3578561842
3.3609058857 0.0000000000 0.3826060593
5.2004532814 0.0000000000 0.0144862840
5.1669607162 0.0000000000 0.9648419023
7.8551611900 0.0000000000 0.5205169320
7.2840442657 0.0000000000 1.2213133574
5.3054089546 0.0000000000 0.4047560692
0.8933687806 0.0000000000 0.0489005856
0.9710817337 0.0000000000 0.1383121908
6.6631932259 0.0000000000 1.1941574812
7.7909369469 0.0000000000 0.3759731054
7.5906400681 0.0000000000 0.9081192613
7.7522192001 0.0000000000 0.5224037766
2.6579551697 0.0000000000 0.2599244714
6.5344953537 0.0000000000 0.4889373481
7.3371582031 0.0000000000 0.2825751901
4.6991124153 0.0000000000 0.0928440168
7.5228219032 0.0000000000 0.2139412910
4.8350367546 0.0000000000 0.8575844765
3.9937574863 0.0000000000 0.0200314242
4.4763016701 0.0000000000 0.5864693522
6.0463991165 0.0000000000 0.9725275636
3.9509859085 0.0000000000 0.5095084310
5.7548885345 0.0000000000 0.1013967618
4.1949677467 0.0000000000 0.4640379846
6.2319436073 0.0000000000 0.5062104464
5.8562550545 0.0000000000 0.5837005377
1.9739120007 0.0000000000 0.1079008058
6.4821782112 0.0000000000 0.1140045673
4.1609935760 0.0000000000 0.5723832846
7.0014166832 0.0000000000 1.0911979675
7.7740316391 0.0000000000 0.8041548729
2.2321918011 0.0000000000 0.1634411663
4.9298486710 0.0000000000 0.5477531552
6.0972633362 0.0000000000 0.7046660185
4.7373595238 0.0000000000 0.8027395010
6.1060342789 0.0000000000 0.8542041779
6.7394762039 0.0000000000 0.3237988353
5.7826581001 0.0000000000 0.8855770230
6.6622610092 0.0000000000 1.1612294912
4.9494142532 0.0000000000 0.8572877049
4.4708418846 0.0000000000 0.1349332035
7.7904481888 0.0000000000 1.0275799036
4.4255170822 0.0000000000 0.5349464417
4.5857558250 0.0000000000 0.8556996584
3.4907085896 0.0000000000 0.5566275716
2.4247093201 0.0000000000 0.2762794793
1.2234238386 0.0000000000 0.1473030299
7.7922453880 0.0000000000 1.2101258039
3.8369531631 0.0000000000 0.1152961925
7.8261098862 0.0000000000 1.4039086103
5.5029568672 0.0000000000 0.1688369811
7.0426583290 0.0000000000 0.0497341454
7.7869744301 0.0000000000 1.3141397238
6.7674145699 0.0000000000 0.7536786795
5.5995130539 0.0000000000 0.7076022625
6.8074283600 0.0000000000 0.1678751707
6.4366207123 0.0000000000 0.6721122861
3.2126836777 0.0000000000 0.5677629113
3.2556781769 0.0000000000 0.5920979977
5.2612395287 0.0000000000 0.9621234536
6.1466078758 0.0000000000 1.0788714886
6.6275320053 0.0000000000 0.1297910810
4.9513440132 0.0000000000 0.7466685772
6.4304628372 0.0000000000 1.0976439714
5.6697173119 0.0000000000 0.0565311573
1.7957069874 0.0000000000 0.1038072258
4.1032633781 0.0000000000 0.2144220769
5.1201109886 0.0000000000 0.6805516481
2.0378074646 0.0000000000 0.2637404501
6.7504096031 0.0000000000 1.0547813177
6.8571124077 0.0000000000 0.0776022896
5.3329443932 0.0000000000 0.9278853536
7.0167851448 0.0000000000 1.2456166744
2.1164860725 0.0000000000 0.1682960242
7.1552314758 0.0000000000 0.6535894275
6.3145437241 0.0000000000 0.0481567122
1.1856265068 0.0000000000 0.1197553053
7.0424165726 0.0000000000 0.7387617230
4.0509924889 0.0000000000 0.2860432565
6.7736892700 0.0000000000 0.4267515242
7.2513103485 0.0000000000 0.4634455144
7.4061179161 0.0000000000 1.0974922180
7.1067605019 0.0000000000 0.7040933967
4.2462701797 0.0000000000 0.1417283565
6.8601198196 0.0000000000 0.8019363880
3.2402696609 0.0000000000 0.5099121332
2.9448366165 0.0000000000 0.0401729271
3.2641861439 0.0000000000 0.2065519691
7.3661718369 0.0000000000 0.9424353838
7.6250576973 0.0000000000 0.1723502129
7.7433676720 0.0000000000 0.8717880845
7.5129389763 0.0000000000 0.0671216920
4.4870228767 0.0000000000 0.2151608914
4.5047316551 0.0000000000 0.5481467843
6.3940396309 0.0000000000 0.1120274961
3.6047461033 0.0000000000 0.4388264716
6.4209074974 0.0000000000 0.2857869267
4.9508700371 0.0000000000 0.7145841122
3.6956286430 0.0000000000 0.3822123408
6.8426446915 0.0000000000 0.4829587042
2.3429441452 0.0000000000 0.0883262530
4.4390377998 0.0000000000 0.7509148121
2.3353343010 0.0000000000 0.3390500844
5.1024203300 0.0000000000 0.0085335039
6.8078951836 0.0000000000 0.7200617194
5.4543371201 0.0000000000 0.9638016224
7.7795906067 0.0000000000 0.5776856542
6.5763525963 0.0000000000 0.3738482893
2.6850070953 0.0000000000 0.0850109383
6.0649905205 0.0000000000 0.6757861376
6.7029733658 0.0000000000 0.7452815175
6.5198378563 0.0000000000 0.1000360623
2.7718617916 0.0000000000 0.0932941362
2.6807076931 0.0000000000 0.3743000925
1.3809275627 0.0000000000 0.1500067711
6.6789107323 0.0000000000 1.1612457037
7.5018711090 0.0000000000 0.2606583536
7.7571215630 0.0000000000 0.9501004219
6.8668775558 0.0000000000 1.1475992203
7.4485297203 0.0000000000 1.0098572969
6.0508694649 0.0000000000 0.1255099922
5.3017168045 0.0000000000 0.8325670362
7.6909785271 0.0000000000 0.1758353710
7.3442864418 0.0000000000 0.8723389506
3.0566790104 0.0000000000 0.5317013860
6.4813551903 0.0000000000 0.8110390902
1.5095305443 0.0000000000 0.1891730726
7.7449383736 0.0000000000 1.3274092674
7.4369978905 0.0000000000 1.1695262194
5.7618131638 0.0000000000 0.2396478802
7.1139512062 0.0000000000 0.5601075292
5.1788616180 0.0000000000 0.2943246365
7.5479793549 0.0000000000 0.8452934623
4.9470496178 0.0000000000 0.1724902093
7.2421822548 0.0000000000 0.7708821893
6.9333524704 0.0000000000 0.2488706708
4.8956508636 0.0000000000 0.2369962186
4.5345582962 0.0000000000 0.7961310744
5.1815671921 0.0000000000 0.7184200287
4.4951791763 0.0000000000 0.3397976458
1.7166539431 0.0000000000 0.1169437170
6.0423965454 0.0000000000 1.0434547663
3.3307158947 0.0000000000 0.2898457050
5.6604356766 0.0000000000 0.1732509881
2.5189719200 0.0000000000 0.1734978259
7.5702877045 0.0000000000 0.6336281896
4.8500285149 0.0000000000 0.3721986711
7.5935544968 0.0000000000 1.0713627338
6.7675948143 0.0000000000 0.3710015714
5.8498659134 0.0000000000 0.6769651771
7.1149868965 0.0000000000 0.9811118245
5.3480086327 0.0000000000 0.4512134492
4.3418703079 0.0000000000 0.7292543054
2.6366500854 0.0000000000 0.1898178011
4.4399943352 0.0000000000 0.1324549317
6.6761837006 0.0000000000 0.6241795421
2.6552193165 0.0000000000 0.3489743769
7.0680241585 0.0000000000 1.1984024048
4.4204564095 0.0000000000 0.7962576747
7.2990427017 0.0000000000 0.4973120689
6.6424975395 0.0000000000 1.0953987837
3.7569413185 0.0000000000 0.5650097728
6.7326464653 0.0000000000 0.7491191626
5.6938900948 0.0000000000 1.0319832563
7.8182144165 0.0000000000 0.7017302513
2.8258998394 0.0000000000 0.2861934006
4.3480887413 0.0000000000 0.0976999551
6.5961990356 0.0000000000 0.7868266106
5.7192192078 0.0000000000 0.6067691445
5.8593959808 0.0000000000 0.6068125367
7.6561975479 0.0000000000 1.0970535278
5.2977399826 0.0000000000 0.0388866141
4.4448647499 0.0000000000 0.2635800242
3.0936918259 0.0000000000 0.0016436300
6.0637245178 0.0000000000 0.6009011865
5.7671775818 0.0000000000 0.2803161442
5.0434403419 0.0000000000 0.4311855137
2.4535574913 0.0000000000 0.3303778470
6.6890726089 0.0000000000 0.8641660213
7.5675487518 0.0000000000 0.3999210596
7.2523050308 0.0000000000 1.1272712946
3.4406716824 0.0000000000 0.2250220031
6.8542857170 0.0000000000 0.9327095151
2.6674149036 0.0000000000 0.1246682405
3.1426160336 0.0000000000 0.3547664285
5.3124890327 0.0000000000 0.6800128818
1.6849886179 0.0000000000 0.2271824181
6.1418032646 0.0000000000 0.2430199534
2.6537024975 0.0000000000 0.2795403004
5.7126269341 0.0000000000 0.1490771919
4.3927421570 0.0000000000 0.1477184296
6.9464254379 0.0000000000 0.9987616539
3.0214393139 0.0000000000 0.3799875975
7.3967480659 0.0000000000 0.6319117546
4.1706871986 0.0000000000 0.3092660010
6.2763953209 0.0000000000 0.6775483489
5.9768934250 0.0000000000 0.8807020187
7.1106381416 0.0000000000 0.6371330023
5.0195884705 0.0000000000 0.1304525286
3.5790567398 0.0000000000 0.0954219326
7.8508000374 0.0000000000 1.4267861843
5.9049520493 0.0000000000 0.8589947820
5.2982101440 0.0000000000 0.2417203337
4.2909030914 0.0000000000 0.7235433459
5.5939559937 0.0000000000 0.0823457241
7.8429903984 0.0000000000 1.0745706558
4.6429791451 0.0000000000 0.5489159822
2.8137612343 0.0000000000 0.1299952865
5.9380950928 0.0000000000 0.5667570829
4.5438613892 0.0000000000 0.3898335993
7.3673019409 0.0000000000 1.0263838768
6.3379712105 0.0000000000 0.5920806527
6.0038499832 0.0000000000 0.6560271978
5.2602458000 0.0000000000 0.0333882198
3.7589154243 0.0000000000 0.5476776361
6.5787434578 0.0000000000 0.2333553582
4.7797846794 0.0000000000 0.0274845008
3.7630164623 0.0000000000 0.4868658483
7.2282238007 0.0000000000 0.5569825172
4.6226873398 0.0000000000 0.3672996461
5.8086404800 0.0000000000 0.1259393394
3.6069047451 0.0000000000 0.4894297719
5.1915650368 0.0000000000 0.6910129189
6.0270833969 0.0000000000 0.7150024176
5.8030047417 0.0000000000 0.9149332047
7.1516127586 0.0000000000 0.8284129500
1.0008434057 0.0000000000 0.0575923175
7.0932116508 0.0000000000 0.6486052275
6.5351963043 0.0000000000 0.3345907927
1.9491382837 0.0000000000 0.0164588597
2.9535536766 0.0000000000 0.1157614738
4.7764248848 0.0000000000 0.5994676352
3.3338243961 0.0000000000 0.5547755957
5.4422521591 0.0000000000 0.9519394636
4.5938100815 0.0000000000 0.3691688180
6.4870762825 0.0000000000 0.6713168025
5.6621809006 0.0000000000 0.7933433056
6.1051254272 0.0000000000 0.7395986319
7.6049127579 0.0000000000 0.9647939205
1.9801338911 0.0000000000 0.2313850075
6.7367162704 0.0000000000 0.7106935382
6.5609331131 0.0000000000 0.9928061962
1.3864052296 0.0000000000 0.2055797428
4.2716579437 0.0000000000 0.3704942763
7.6204876900 0.0000000000 1.4220316410
5.6163139343 0.0000000000 0.4113994539
5.6762557030 0.0000000000 0.2583293915
3.3527669907 0.0000000000 0.0283306222
5.9329285622 0.0000000000 0.2051486969
7.6880440712 0.0000000000 1.1677169800
7.0783233643 0.0000000000 0.6529890895
2.4512805939 0.0000000000 0.0317302905
3.7875874043 0.0000000000 0.0685967430
6.7158031464 0.0000000000 1.1609649658
4.3732686043 0.0000000000 0.5776609182
3.5750408173 0.0000000000 0.2041208446
3.1544246674 0.0000000000 0.2692886591
5.8464007378 0.0000000000 1.0423822403
5.3028287888 0.0000000000 0.7025879622
7.5800485611 0.0000000000 1.0656107664
2.9436745644 0.0000000000 0.3668390214
2.1858599186 0.0000000000 0.2457247525
7.4244847298 0.0000000000 0.4549515843
7.7158222198 0.0000000000 0.5898010731
3.2557621002 0.0000000000 0.2581051588
7.3572983742 0.0000000000 1.1920405626
7.0594429970 0.0000000000 0.1304544955
7.2686781883 0.0000000000 0.5666459203
2.5436615944 0.0000000000 0.3059203029
3.9472334385 0.0000000000 0.3953558207
3.2805778980 0.0000000000 0.3711744547
3.3225195408 0.0000000000 0.4036357105
5.3975243568 0.0000000000 0.2289571464
5.8433370590 0.0000000000 0.2130229473
4.3638558388 0.0000000000 0.5483475924
7.2898349762 0.0000000000 0.7402188778
4.6175704002 0.0000000000 0.2950373292
7.8372926712 0.0000000000 0.4491075575
7.6233410835 0.0000000000 0.1153631136
6.4584846497 0.0000000000 0.0091027394
7.4641032219 0.0000000000 1.0709972382
1.6649736166 0.0000000000 0.0903355777
7.8276190758 0.0000000000 0.4694185257
4.4091849327 0.0000000000 0.0129886568
7.5003023148 0.0000000000 1.1058419943
1.7738859653 0.0000000000 0.2916913927
7.3667035103 0.0000000000 0.0420996472
2.4559111595 0.0000000000 0.0164977815
4.4580416679 0.0000000000 0.5850465298
7.1214466095 0.0000000000 0.5328110456
3.6223044395 0.0000000000 0.4940535724
7.4903483391 0.0000000000 0.2115417570
1.5624070168 0.0000000000 0.0191199798
3.4341852665 0.0000000000 0.5644153357
5.4846587181 0.0000000000 0.5387860537
7.1878833771 0.0000000000 0.6166988015
4.9719424248 0.0000000000 0.7417399883
7.3016290665 0.0000000000 1.1396874189
2.6439297199 0.0000000000 0.3179552853
2.8207409382 0.0000000000 0.2611694634
6.7753181458 0.0000000000 1.1342339516
6.2378449440 0.0000000000 0.5771111846
7.7488360405 0.0000000000 0.0996118784
6.3409085274 0.0000000000 0.4384770691
7.3263969421 0.0000000000 1.1104030609
5.7297239304 0.0000000000 0.6223002672
5.3971014023 0.0000000000 0.5667508841
5.6082549095 0.0000000000 0.8621410728
6.9729261398 0.0000000000 1.0360196829
5.7860321999 0.0000000000 0.1614346653
3.9120349884 0.0000000000 0.3551595509
5.0806727409 0.0000000000 0.1445504129
5.9767794609 0.0000000000 0.7556251884
4.6676778793 0.0000000000 0.7913494706
6.9351458549 0.0000000000 0.9128869772
1.6413553953 0.0000000000 0.2742211223
6.3599019051 0.0000000000 1.0065724850
4.6894583702 0.0000000000 0.8573560119
4.8741750717 0.0000000000 0.1121034473
2.1967227459 0.0000000000 0.3619031310
7.6761360168 0.0000000000 1.4393504858
6.4325113297 0.0000000000 0.8045918941
2.1281387806 0.0000000000 0.2789267898
4.7863306999 0.0000000000 0.4555720091
2.4971327782 0.0000000000 0.1210423708
7.7601099014 0.0000000000 0.4002804160
6.7225184441 0.0000000000 1.0086777210
2.9551305771 0.0000000000 0.4239468277
5.3590307236 0.0000000000 0.8544972539
4.9729185104 0.0000000000 0.0145093966
6.6304702759 0.0000000000 1.1101409197
6.0884208679 0.0000000000 0.4310351908
7.8186440468 0.0000000000 0.7671301961
3.5685429573 0.0000000000 0.2517557144
3.5260760784 0.0000000000 0.4369437099
6.0555887222 0.0000000000 0.7551922202
7.3215818405 0.0000000000 0.8662757874
1.3148607016 0.0000000000 0.0535892583
7.7626676559 0.0000000000 0.5340726972
6.8013987541 0.0000000000 0.4897696972
6.5831365585 0.0000000000 0.1458446532
2.7525386810 0.0000000000 0.0354991704
6.9731140137 0.0000000000 1.1036398411
4.0662550926 0.0000000000 0.1658159494
7.7779126167 0.0000000000 1.2372095585
6.3634147644 0.0000000000 0.5078954101
4.3483562469 0.0000000000 0.0470613278
7.1690573692 0.0000000000 0.2039165050
2.3699915409 0.0000000000 0.0519628376
7.4666900635 0.0000000000 0.3777831793
7.3873991966 0.0000000000 0.1158593222
7.6997737885 0.0000000000 0.8662895560
3.1996948719 0.0000000000 0.5923271179
5.2971835136 0.0000000000 0.4534060061
1.7727770805 0.0000000000 0.1767703146
1.2815026045 0.0000000000 0.2142257690
5.7703256607 0.0000000000 0.6846060157
6.4888334274 0.0000000000 0.7689531446
7.0564804077 0.0000000000 1.3118053675
3.5300447941 0.0000000000 0.3197692335
1.2647485733 0.0000000000 0.0249182358
5.0486912727 0.0000000000 0.0435947105
7.7666544914 0.0000000000 1.1981260777
5.3644385338 0.0000000000 0.9881865978
3.2389769554 0.0000000000 0.5793650746
6.8023905754 0.0000000000 0.5448980927
2.1500816345 0.0000000000 0.0755101442
3.2081749439 0.0000000000 0.5066117644
5.4759192467 0.0000000000 0.1741022468
7.7819633484 0.0000000000 0.1399656236
7.6481027603 0.0000000000 1.4311345816
7.0776643753 0.0000000000 0.2876226306
5.9293622971 0.0000000000 0.5290493369
5.9502305984 0.0000000000 1.1104278564
4.6809544563 0.0000000000 0.3260264397
7.2616639137 0.0000000000 0.2875384092
5.0316686630 0.0000000000 0.3739463389
7.7179708481 0.0000000000 0.2174842060
5.2742719650 0.0000000000 0.3191811144
7.6053900719 0.0000000000 0.3539794683
3.1589934826 0.0000000000 0.5165873170
6.7624397278 0.0000000000 1.2516239882
4.3302106857 0.0000000000 0.0735911578
7.5860719681 0.0000000000 0.6199787855
6.3919153214 0.0000000000 0.3244258761
1.1535881758 0.0000000000 0.0588794611
4.6758289337 0.0000000000 0.7280225754
5.4101734161 0.0000000000 0.2411107421
4.9695730209 0.0000000000 0.2490163594
7.0001163483 0.0000000000 0.2263835818
4.3743495941 0.0000000000 0.1931622773
7.4129414558 0.0000000000 0.8438071609
4.4908051491 0.0000000000 0.1751530021
4.5652723312 0.0000000000 0.7650148273
6.3116531372 0.0000000000 0.9544805884
6.7367258072 0.0000000000 0.8528854847
5.2347455025 0.0000000000 0.4810279906
6.5557241440 0.0000000000 0.7115809321
5.2399349213 0.0000000000 0.7972053885
5.7558259964 0.0000000000 0.6875464916
6.4754328728 0.0000000000 1.1855344772
7.0789823532 0.0000000000 0.8663109541
6.2446012497 0.0000000000 0.7561442852
4.2625260353 0.0000000000 0.1419426799
3.1920495033 0.0000000000 0.0344254114
2.2918701172 0.0000000000 0.3515458107
6.4734640121 0.0000000000 0.3516490757
7.5761446953 0.0000000000 0.9768598676
3.9902787209 0.0000000000 0.2715381980
6.1610727310 0.0000000000 0.6713491678
1.7878804207 0.0000000000 0.0378845185
7.8029561043 0.0000000000 0.8331458569
2.9396107197 0.0000000000 0.1675748527
4.8212823868 0.0000000000 0.0457251482
4.9033956528 0.0000000000 0.5775227547
6.7592034340 0.0000000000 0.1503184140
7.1163806915 0.0000000000 0.3522360921
5.0501790047 0.0000000000 0.2354978919
6.7672085762 0.0000000000 0.4903322458
4.0607323647 0.0000000000 0.0606196038
5.3857231140 0.0000000000 0.1978899091
7.7079458237 0.0000000000 0.6628509164
3.1453280449 0.0000000000 0.2018404901
1.5170892477 0.0000000000 0.0777742416
4.2778587341 0.0000000000 0.2737196982
4.4987554550 0.0000000000 0.7292491198
6.5627021790 0.0000000000 0.6951104999
6.0431380272 0.0000000000 0.8547443151
4.0737195015 0.0000000000 0.6326110959
2.7978098392 0.0000000000 0.4191681743
2.0581271648 0.0000000000 0.0967523977
7.5543427467 0.0000000000 1.0444242954
6.2481737137 0.0000000000 1.0529406071
6.0070142746 0.0000000000 0.3568288982
7.2844138145 0.0000000000 0.9994868040
2.8892862797 0.0000000000 0.0128709953
7.7028927803 0.0000000000 0.4130701125
5.9131307602 0.0000000000 0.9945988059
7.2057747841 0.0000000000 1.2049622536
6.9016418457 0.0000000000 0.8268941641
1.4468959570 0.0000000000 0.1084619015
6.7460346222 0.0000000000 0.9948194623
1.7774530649 0.0000000000 0.2045397162
5.6472125053 0.0000000000 0.8849107623
7.1833963394 0.0000000000 0.1166815236
5.9499897957 0.0000000000 0.3730565608
6.9839873314 0.0000000000 0.1394603103
6.0427284241 0.0000000000 1.1043365002
4.4235000610 0.0000000000 0.1294367015
6.7920064926 0.0000000000 0.3245540857
7.8092598915 0.0000000000 0.4343667328
3.3420128822 0.0000000000 0.3472296298
4.4671440125 0.0000000000 0.7866889238
4.8492932320 0.0000000000 0.1846246272
5.6494154930 0.0000000000 0.9328578115
6.4943194389 0.0000000000 0.6107209325
6.3272700310 0.0000000000 0.0819744840
4.4762115479 0.0000000000 0.1647651047
3.0390002728 0.0000000000 0.4212487340
6.2793340683 0.0000000000 0.6405926347
7.7199258804 0.0000000000 1.2043938637
5.9472117424 0.0000000000 0.2888767421
6.0002784729 0.0000000000 0.7301380634
0.6743493080 0.0000000000 0.0849921554
7.6420822144 0.0000000000 1.4162453413
1.6364624500 0.0000000000 0.0186515208
5.9267902374 0.0000000000 0.9559894800
1.8432989120 0.0000000000 0.2145356238
6.2785944939 0.0000000000 0.8159142733
7.0053915977 0.0000000000 0.9975394607
3.7384269238 0.0000000000 0.5476438403
5.4477510452 0.0000000000 0.9227250814
3.7386922836 0.0000000000 0.6710968614
7.0811600685 0.0000000000 0.0590758882
3.2644331455 0.0000000000 0.3059008121
6.4048538208 0.0000000000 0.2965463400
5.1220469475 0.0000000000 0.5930258632
2.4667615891 0.0000000000 0.1499149054
6.6675739288 0.0000000000 0.0171934422
6.5537943840 0.0000000000 1.2060844898
7.0267348289 0.0000000000 0.6487797499
7.7602157593 0.0000000000 1.0207964182
7.2796473503 0.0000000000 0.0113826999
5.3760409355 0.0000000000 0.8815060854
2.3881003857 0.0000000000 0.0203732885
7.4070377350 0.0000000000 1.3458968401
3.0563032627 0.0000000000 0.2520039082
2.1758685112 0.0000000000 0.0267696995
5.1184620857 0.0000000000 0.1458034962
3.5324163437 0.0000000000 0.4889018238
4.7323627472 0.0000000000 0.7620381713
1.5367512703 0.0000000000 0.1365096420
6.7897205353 0.0000000000 0.0262056254
6.8716135025 0.0000000000 0.6240701675
5.8618655205 0.0000000000 0.4180345535
5.4110174179 0.0000000000 0.8937060237
5.2984070778 0.0000000000 0.5489981771
5.5824446678 0.0000000000 0.5174999833
6.0915107727 0.0000000000 0.1938504279
7.8515238762 0.0000000000 0.8359921575
6.7437200546 0.0000000000 0.9507482648
7.4447889328 0.0000000000 0.9079372883
7.1000704765 0.0000000000 1.2780389786
2.6523449421 0.0000000000 0.1177282333
2.3402004242 0.0000000000 0.3620163500
2.0955815315 0.0000000000 0.1754488647
6.9249830246 0.0000000000 1.2263609171
4.7350726128 0.0000000000 0.3048797548
2.8332834244 0.0000000000 0.3317978978
3.9011263847 0.0000000000 0.5160747766
4.9177241325 0.0000000000 0.8573759198
7.4014582634 0.0000000000 0.3054317832
6.7818298340 0.0000000000 0.9973964095
5.0600714684 0.0000000000 0.8908649087
4.3252415657 0.0000000000 0.0882251710
3.4677276611 0.0000000000 0.2863497138
7.7710146904 0.0000000000 1.1216990948
4.7541413307 0.0000000000 0.2048880905
4.1263165474 0.0000000000 0.2188702375
2.4539468288 0.0000000000 0.1773658544
5.7253150940 0.0000000000 0.5481513739
1.5201090574 0.0000000000 0.2154819220
7.7862377167 0.0000000000 1.1250185966
2.7528545856 0.0000000000 0.4361902475
4.9274878502 0.0000000000 0.0329702832
1.7758666277 0.0000000000 0.0512805730
