1.8747873157 1.0000000000 1.2089173879
7.5253636131 1.0000000000 0.3424581966
7.8379609953 1.0000000000 0.0664537326
4.1542256153 1.0000000000 1.0784991985
4.7196362818 1.0000000000 1.0254021366
2.3416529821 1.0000000000 1.0854607418
6.4947682389 1.0000000000 1.2977372617
7.3491523776 1.0000000000 0.3123825692
5.8927621551 1.0000000000 0.7332655465
4.7099440301 1.0000000000 1.1489446630
7.2273456177 1.0000000000 1.0698183881
2.7307261275 1.0000000000 1.4529970010
5.4136785545 1.0000000000 1.3248289217
6.5475397838 1.0000000000 1.3580432157
7.0258698463 1.0000000000 0.8365674395
5.4117433618 1.0000000000 0.4924517819
4.6357792588 1.0000000000 1.0774769215
3.3957455504 1.0000000000 0.9603226791
6.7455668389 1.0000000000 0.4174686548
2.3108521599 1.0000000000 1.1697377186
5.6467643179 1.0000000000 1.4977287254
3.1355219571 1.0000000000 1.3672287890
7.6867975725 1.0000000000 1.4959588917
1.8945797323 1.0000000000 1.2390374367
2.0375069194 1.0000000000 1.3882981429
2.9355843514 1.0000000000 1.0312981853
7.6315238540 1.0000000000 0.1540350187
7.7372825797 1.0000000000 0.5657669631
6.0885408860 1.0000000000 0.7023617411
6.1014064186 1.0000000000 0.3907888865
3.9344486259 1.0000000000 1.3837044441
4.8995225467 1.0000000000 0.8560780576
5.3372740056 1.0000000000 0.8805994934
6.6770847160 1.0000000000 1.3593514925
5.9840815219 1.0000000000 0.3901051142
7.7491058716 1.0000000000 0.2216078230
7.2901598293 1.0000000000 1.2814851418
6.8556864588 1.0000000000 1.2693409771
3.7246761627 1.0000000000 0.8822817048
3.9819947797 1.0000000000 1.0955633186
4.7134099357 1.0000000000 1.3916343055
6.2310269541 1.0000000000 1.1315827266
6.4140042760 1.0000000000 0.5770920338
3.5220408293 1.0000000000 0.9867221774
6.0892685679 1.0000000000 0.5706175821
4.3830628580 1.0000000000 1.2915565353
4.1244078670 1.0000000000 0.9892142244
4.8575224354 1.0000000000 1.2169385257
7.6655337210 1.0000000000 0.6126289965
6.3931524051 1.0000000000 0.7802396213
2.9610756984 1.0000000000 1.3427976146
2.4950677728 1.0000000000 1.4012680782
7.5758684099 1.0000000000 1.0959077198
4.2625649859 1.0000000000 1.3796211680
6.8174507967 1.0000000000 1.4676262040
7.5976294771 1.0000000000 0.3796274060
4.6735345393 1.0000000000 1.4052131414
7.4277013193 1.0000000000 0.2363577300
7.7794157423 1.0000000000 0.2419773705
7.3584601774 1.0000000000 1.4483910787
4.6132998817 1.0000000000 0.8418896515
7.5996521894 1.0000000000 1.1058648694
7.3325465914 1.0000000000 0.3904880078
2.6165559588 1.0000000000 1.4067143400
6.5458417998 1.0000000000 0.2807976518
3.7648214976 1.0000000000 0.8510583767
6.3092120805 1.0000000000 0.7773190205
6.8778489648 1.0000000000 1.1565828835
3.3483642712 1.0000000000 1.2078020742
0.9265422901 1.0000000000 1.4015011092
5.1869365216 1.0000000000 1.3244726512
7.2010584086 1.0000000000 0.4140608123
3.3433572123 1.0000000000 1.4934859462
2.6786428726 1.0000000000 1.4034568183
3.4423764002 1.0000000000 1.0949246369
2.6160615586 1.0000000000 1.3031184835
6.6157526009 1.0000000000 0.9270053811
4.8395099497 1.0000000000 1.1700779809
5.2086962374 1.0000000000 1.1609216983
2.7961084745 1.0000000000 1.2823203598
6.0946732045 1.0000000000 0.8098081915
2.6954474175 1.0000000000 1.0074891536
4.6562287551 1.0000000000 1.1855652793
6.9963563572 1.0000000000 0.7496022036
3.0408771721 1.0000000000 1.1792406281
7.3279474331 1.0000000000 1.0542862140
6.7624279209 1.0000000000 0.9718034727
7.8473996636 1.0000000000 0.1344585721
6.9347806962 1.0000000000 1.2164311413
6.0818559465 1.0000000000 1.2693242196
5.5129833156 1.0000000000 1.3469845371
5.1496554818 1.0000000000 0.7624978095
5.7159418835 1.0000000000 0.7249849917
4.1078748719 1.0000000000 1.0742035170
6.0849906486 1.0000000000 1.2080899344
6.9754080574 1.0000000000 0.8544589346
5.9110864170 1.0000000000 1.3524983524
3.3769195909 1.0000000000 1.1397258976
5.7675953261 1.0000000000 0.8331518588
6.4956519068 1.0000000000 0.4210743564
7.2939132985 1.0000000000 0.7614346514
6.1932102621 1.0000000000 0.8817263316
1.0693194334 1.0000000000 1.3511520156
7.1240909756 1.0000000000 0.7624497072
4.5804588351 1.0000000000 0.9642938644
4.5537949120 1.0000000000 0.7218337968
4.1207082310 1.0000000000 1.4001794974
3.8566615885 1.0000000000 1.3299704347
0.9132680690 1.0000000000 1.4367004996
5.4201936970 1.0000000000 0.8306202707
6.4391949582 1.0000000000 1.4626305014
6.2633061514 1.0000000000 1.4404287299
3.7976392147 1.0000000000 1.3126068728
6.3395959700 1.0000000000 1.0856529850
2.5185667535 1.0000000000 1.4735423897
4.2366497171 1.0000000000 1.1853653659
2.7292270984 1.0000000000 1.4048779042
5.9489499412 1.0000000000 0.4489185703
7.8398845307 1.0000000000 0.4609083568
4.1197970682 1.0000000000 0.8518095917
4.2786962688 1.0000000000 1.0021911873
4.2744840905 1.0000000000 1.1962019828
3.7551011890 1.0000000000 1.3589015953
5.6301099196 1.0000000000 1.3529156004
4.3392951498 1.0000000000 1.0085790721
2.9067202137 1.0000000000 1.0492053356
6.9797479151 1.0000000000 0.4346946833
5.4410570436 1.0000000000 1.3872720289
3.0996078285 1.0000000000 1.0668836299
4.3568190624 1.0000000000 1.4134263786
6.6232011194 1.0000000000 0.3024937266
7.8185261771 1.0000000000 1.0981820147
4.8267543630 1.0000000000 0.7567629190
7.4813644288 1.0000000000 0.9688306864
7.4956789064 1.0000000000 1.2420484391
5.4278039838 1.0000000000 1.0845438355
2.3749816429 1.0000000000 1.1414990194
6.3594609793 1.0000000000 1.1998324348
3.4709621234 1.0000000000 1.1947889491
7.0527729967 1.0000000000 1.0886031336
5.3176368295 1.0000000000 0.6767601822
6.2745808182 1.0000000000 0.5811829008
3.6130149583 1.0000000000 1.2132039606
5.8447795600 1.0000000000 0.4170682348
1.3666480923 1.0000000000 1.2778287775
4.8819255585 1.0000000000 0.6127594192
0.9917900807 1.0000000000 1.3813683731
7.7605148841 1.0000000000 0.6494568470
5.2511465380 1.0000000000 0.5432093422
7.0159119711 1.0000000000 0.4299391266
2.2024258136 1.0000000000 1.1223514135
4.9467850017 1.0000000000 0.5711932228
6.9261210227 1.0000000000 1.4432488061
6.1253108395 1.0000000000 0.6978783986
4.9664214459 1.0000000000 0.6790423622
1.0930986063 1.0000000000 1.4889248561
3.0841648731 1.0000000000 1.2824058568
7.3558759863 1.0000000000 0.2845044437
6.2394454413 1.0000000000 1.3679185232
3.2973936937 1.0000000000 1.3500177045
3.7648994841 1.0000000000 0.9203256677
3.2514335886 1.0000000000 1.3335267323
7.7813950440 1.0000000000 1.3421826705
2.0661407615 1.0000000000 1.3995065837
5.9667380666 1.0000000000 1.0969976157
3.9031249674 1.0000000000 1.2284685282
6.3140977479 1.0000000000 0.5631598013
5.9255241392 1.0000000000 1.0605763151
7.7125157376 1.0000000000 0.1231548231
5.3898478946 1.0000000000 0.5256290847
2.6650521828 1.0000000000 1.1686859648
5.9696873791 1.0000000000 1.2768013100
1.1800617103 1.0000000000 1.4435002842
3.4290635741 1.0000000000 1.2252822977
3.5542598519 1.0000000000 1.2001227075
6.7352945908 1.0000000000 1.4231297019
6.2789452324 1.0000000000 0.9036110980
3.1858933624 1.0000000000 1.1364252727
3.3080996399 1.0000000000 1.2316036198
2.7724489105 1.0000000000 1.3232479228
6.7696467362 1.0000000000 0.3757302185
7.2301465792 1.0000000000 1.4297903752
4.6160933944 1.0000000000 1.0294300810
4.1306962190 1.0000000000 0.8035544186
2.2445282186 1.0000000000 1.1926892272
6.3293311980 1.0000000000 0.4081813952
6.7570570826 1.0000000000 0.4035377150
4.5199223815 1.0000000000 0.8622998366
6.0013826653 1.0000000000 1.4348577133
0.7715275332 1.0000000000 1.4610541095
5.3333648964 1.0000000000 1.4308858907
3.4605070613 1.0000000000 0.9684593023
6.8941145442 1.0000000000 0.8123846274
3.8641931690 1.0000000000 1.4521172911
5.3203759297 1.0000000000 0.5973696653
4.8232144623 1.0000000000 0.9115102135
3.8834730390 1.0000000000 0.9481420107
6.5452164668 1.0000000000 1.4228965173
7.2732081760 1.0000000000 0.6841504946
2.5968552565 1.0000000000 1.4314482208
2.3552956791 1.0000000000 1.1424859909
6.9599255055 1.0000000000 1.0683122833
6.4978717320 1.0000000000 1.3834991738
4.9591243926 1.0000000000 0.9809820373
7.1978674302 1.0000000000 1.0850898051
1.5793205205 1.0000000000 1.4979061758
7.5471062333 1.0000000000 0.8830289582
0.7412561848 1.0000000000 1.4250154056
5.8134074564 1.0000000000 1.1507382995
5.7240797167 1.0000000000 1.2805365201
7.3869278974 1.0000000000 1.2899015235
7.6408912663 1.0000000000 0.5954862201
6.3748536899 1.0000000000 1.0259153151
7.4177302416 1.0000000000 0.3904899465
4.6914906646 1.0000000000 1.1834825658
6.2781102866 1.0000000000 0.4746903735
5.1194167809 1.0000000000 1.3721890534
6.9351430209 1.0000000000 0.2094079844
4.8140954282 1.0000000000 0.9860097516
4.5595672451 1.0000000000 1.4322136136
4.1067582813 1.0000000000 0.8888444815
3.5606541433 1.0000000000 1.0513386434
3.6392488875 1.0000000000 1.0145978055
5.1218888720 1.0000000000 1.2756049315
1.9982356049 1.0000000000 1.4346777940
5.6923718429 1.0000000000 1.2923098188
5.0198829975 1.0000000000 1.4492787115
5.7764107394 1.0000000000 1.3692579580
4.0343975653 1.0000000000 1.2714514924
5.0243859251 1.0000000000 0.5854174088
6.9114127390 1.0000000000 0.7053792505
6.6839557625 1.0000000000 1.4064019120
6.0848084709 1.0000000000 1.0115737296
7.6051743330 1.0000000000 1.2491484229
7.2588209298 1.0000000000 1.3812372204
6.3278086345 1.0000000000 1.1417259818
6.3040464212 1.0000000000 1.0869787635
4.2822057583 1.0000000000 0.7915361385
6.8232408760 1.0000000000 1.2776542228
5.8015222736 1.0000000000 0.7429580947
1.9313649134 1.0000000000 1.2248669900
6.8184391884 1.0000000000 1.0151655456
1.9805523420 1.0000000000 1.1832822052
4.2346929495 1.0000000000 1.4171512637
4.5810001152 1.0000000000 1.0319231334
6.3821091755 1.0000000000 0.7388857043
7.0925246660 1.0000000000 1.0675217689
7.1109815135 1.0000000000 0.3481689926
7.2305071635 1.0000000000 1.4673301863
5.8694880230 1.0000000000 0.4620633217
5.3408541057 1.0000000000 0.5458859730
5.9290757525 1.0000000000 0.6450448166
6.7030965955 1.0000000000 0.4821902769
6.9076944744 1.0000000000 0.6682694523
6.9245955728 1.0000000000 0.8405769443
3.2133724397 1.0000000000 1.4493340656
7.8435365338 1.0000000000 1.2940918144
0.8741887384 1.0000000000 1.4793197723
1.7357517035 1.0000000000 1.2491705665
7.7227095413 1.0000000000 0.3188950891
7.0547004752 1.0000000000 0.1965973200
5.9728753427 1.0000000000 1.3506205603
7.3166887876 1.0000000000 1.0240314356
2.5435052968 1.0000000000 1.0375813147
7.5867528584 1.0000000000 1.4504076008
4.2225095870 1.0000000000 0.7785829111
3.9682437309 1.0000000000 0.8734315934
4.4384181740 1.0000000000 1.0662440051
7.2801937614 1.0000000000 0.2978662466
2.9661113963 1.0000000000 1.4764508260
6.6633227284 1.0000000000 0.3337804693
4.3025498248 1.0000000000 1.2961601190
3.1727626084 1.0000000000 0.9397421825
6.8259033934 1.0000000000 1.1072428847
7.3917561535 1.0000000000 1.4042484599
5.2318776390 1.0000000000 0.9544705209
2.7936691262 1.0000000000 1.4433450241
6.5137595075 1.0000000000 0.8503372717
3.9232785596 1.0000000000 1.4593205503
5.7196710670 1.0000000000 0.7665924401
5.5626003220 1.0000000000 1.2675415559
6.7072600799 1.0000000000 1.1034075264
3.5084778696 1.0000000000 0.8762834148
6.4866996447 1.0000000000 0.5288516109
6.9497480555 1.0000000000 1.3271897054
5.7669257085 1.0000000000 0.8846889016
6.9114879547 1.0000000000 0.5212675648
4.3134213193 1.0000000000 1.0409688762
6.3516829676 1.0000000000 1.0731354319
7.6659942830 1.0000000000 0.6517946649
6.1256809282 1.0000000000 1.1491828766
4.0073541166 1.0000000000 0.9589782876
7.4081869587 1.0000000000 0.9354533035
5.2785945510 1.0000000000 1.3658254726
2.3894552350 1.0000000000 1.3374992787
5.9339428058 1.0000000000 1.4407891289
2.5777408111 1.0000000000 1.1536663233
5.7209096643 1.0000000000 1.2108641351
6.1433632335 1.0000000000 0.6878545385
7.6029515309 1.0000000000 0.4143147705
4.0438298250 1.0000000000 0.8561617867
6.8435595362 1.0000000000 0.6381907026
6.3464375178 1.0000000000 0.3699085169
6.1592655677 1.0000000000 1.1376335771
6.1020197273 1.0000000000 1.2980952999
5.0850337313 1.0000000000 1.4523922904
6.9210560312 1.0000000000 0.8718125004
6.7466252940 1.0000000000 0.4681266951
2.5101764119 1.0000000000 1.4915356535
6.3418395565 1.0000000000 1.1639589211
2.4129775629 1.0000000000 1.0656892047
5.7393008703 1.0000000000 0.8109461399
4.8465338999 1.0000000000 1.3996111657
4.2799725190 1.0000000000 0.8084409474
6.9768199181 1.0000000000 0.6813377292
1.1741341777 1.0000000000 1.3208365964
7.4730929339 1.0000000000 1.2626631929
3.6712261058 1.0000000000 1.1807167936
5.4346146501 1.0000000000 0.8518901225
4.9658536501 1.0000000000 1.4572023470
3.2320105435 1.0000000000 1.4381886840
6.6668504248 1.0000000000 0.5849787889
7.5999236367 1.0000000000 1.1989412240
6.1944356471 1.0000000000 0.7205950522
4.8616399020 1.0000000000 0.8604994965
5.9145824681 1.0000000000 0.9776072327
4.9322425823 1.0000000000 0.8641506871
6.0145170001 1.0000000000 0.8093078176
4.6047655835 1.0000000000 1.1432015716
1.2918442816 1.0000000000 1.4421356196
4.3924497662 1.0000000000 1.0933613299
5.4121698961 1.0000000000 0.7486536120
1.2288917133 1.0000000000 1.3341131414
1.8959337940 1.0000000000 1.3495328643
7.3870037684 1.0000000000 0.8559902853
7.8524123633 1.0000000000 0.1472563154
3.2833982356 1.0000000000 0.9755191080
5.6706912055 1.0000000000 1.2955685256
6.9447168450 1.0000000000 0.3984008420
7.0648586593 1.0000000000 0.5734438914
6.4244983804 1.0000000000 1.1723487975
5.0069006048 1.0000000000 0.8715390015
6.3278576744 1.0000000000 1.4000954744
7.4290534422 1.0000000000 1.1653646420
7.5508888786 1.0000000000 1.3329552738
4.8535255330 1.0000000000 1.3756780411
5.2244846186 1.0000000000 1.3191377768
7.0066876220 1.0000000000 0.2901828170
7.7830059591 1.0000000000 0.5463730177
1.0066676767 1.0000000000 1.4829146502
4.3033730922 1.0000000000 1.2659326477
7.0800367776 1.0000000000 0.4234891962
5.1343128287 1.0000000000 1.2470951045
7.2457234622 1.0000000000 0.5848862894
4.1068184011 1.0000000000 0.7418299733
7.3813803070 1.0000000000 1.1376091257
1.5859392981 1.0000000000 1.4855628183
2.9155326082 1.0000000000 1.2692449298
7.2685985357 1.0000000000 0.4450860603
7.1930191602 1.0000000000 0.5024785967
4.6407349849 1.0000000000 1.1775695569
3.6600903881 1.0000000000 0.8533086959
4.7514810313 1.0000000000 1.2506027482
7.5779603395 1.0000000000 0.5758424692
2.0402263173 1.0000000000 1.1578099328
3.6160675430 1.0000000000 1.4958923173
7.2781235990 1.0000000000 1.2648713874
5.8917543928 1.0000000000 1.2210721982
3.6261891848 1.0000000000 0.8494741501
5.6511212424 1.0000000000 1.1806873785
2.2933962229 1.0000000000 1.1394820742
5.0935125216 1.0000000000 1.4736364216
7.7164527903 1.0000000000 0.5958981982
5.0719617917 1.0000000000 1.2205769899
3.2830100036 1.0000000000 1.3590044117
7.2347519626 1.0000000000 1.2615585608
6.9154257856 1.0000000000 0.9963313629
0.7802734910 1.0000000000 1.4730640352
6.9571236378 1.0000000000 0.8283620726
4.3631830775 1.0000000000 1.4841446869
7.4150319617 1.0000000000 0.9219773394
7.5509541142 1.0000000000 0.2023823048
3.7967370867 1.0000000000 1.0192430993
3.1952397145 1.0000000000 1.4429698058
4.2424800392 1.0000000000 1.0607384749
6.8262499056 1.0000000000 0.4505081021
7.3370896665 1.0000000000 1.2001122428
7.6286325891 1.0000000000 1.0634050177
4.8088362851 1.0000000000 0.6437958348
5.1156291823 1.0000000000 1.4740038285
5.5549238657 1.0000000000 0.6380141729
3.2971280130 1.0000000000 1.2935992094
7.4770332256 1.0000000000 0.4880807411
7.6081106883 1.0000000000 1.0401010155
5.7051150624 1.0000000000 1.2074616936
5.4839871140 1.0000000000 0.8598580676
3.1470848269 1.0000000000 1.4661977739
7.4119942354 1.0000000000 0.4311127840
4.3323112138 1.0000000000 0.7811369123
7.4509425392 1.0000000000 0.8226263367
7.1714264034 1.0000000000 0.3147408996
7.6866584121 1.0000000000 0.5071222536
4.4105943574 1.0000000000 0.8651834886
6.3418358252 1.0000000000 0.5737613215
6.8589668896 1.0000000000 0.6228341221
1.0568879848 1.0000000000 1.3842813526
7.0806503141 1.0000000000 1.2183805240
1.6129961366 1.0000000000 1.3095990277
7.1097456218 1.0000000000 0.4334349089
7.7640739495 1.0000000000 0.2049119472
2.1501766127 1.0000000000 1.3235740677
7.2631421287 1.0000000000 0.9253190564
7.2511719824 1.0000000000 0.7655355485
6.4651997692 1.0000000000 1.4896313277
4.5354757740 1.0000000000 0.8568695796
6.7079817171 1.0000000000 1.1277574239
5.2815211197 1.0000000000 1.3313876870
3.4092613079 1.0000000000 1.0838039986
6.7390902605 1.0000000000 1.3299819233
7.3733384240 1.0000000000 0.4325913971
6.5408034744 1.0000000000 0.9574491051
6.8364620896 1.0000000000 1.3897438066
2.3948916153 1.0000000000 1.3103341381
3.8634563707 1.0000000000 0.8213501969
4.0867356028 1.0000000000 0.7767218766
4.0738223917 1.0000000000 1.3911082891
6.6090660323 1.0000000000 1.2736154858
5.6582960486 1.0000000000 1.4745269585
6.7067750886 1.0000000000 0.7232490571
3.3420380013 1.0000000000 1.2474157644
7.0602285643 1.0000000000 1.1035127631
5.7495007776 1.0000000000 1.2310499796
3.3457536642 1.0000000000 1.0856789243
4.1852889429 1.0000000000 1.2410032627
4.2868116014 1.0000000000 0.8775928736
2.6520571963 1.0000000000 1.3672693660
2.7894326938 1.0000000000 0.9965148973
6.1159052030 1.0000000000 1.0090576673
2.4278052081 1.0000000000 1.1050234747
4.8089395858 1.0000000000 1.0523586081
6.1674797042 1.0000000000 1.4291571930
7.5135568796 1.0000000000 1.2577566458
7.6169217417 1.0000000000 0.6663084950
2.9447556112 1.0000000000 1.4439542362
7.2780396832 1.0000000000 0.2363883591
2.7117251691 1.0000000000 1.2878515168
7.8648999394 1.0000000000 0.4506573979
3.9361367423 1.0000000000 1.4761332552
5.9831753052 1.0000000000 0.6510070543
7.0335840081 1.0000000000 0.6830104292
2.5479728709 1.0000000000 1.3751169269
4.5635048986 1.0000000000 0.9515226739
4.8531184626 1.0000000000 1.4783281322
7.3448943177 1.0000000000 1.4092940443
6.3663107409 1.0000000000 1.4460054341
7.7654792263 1.0000000000 0.4559734095
5.8335482574 1.0000000000 1.2581628356
6.1024806753 1.0000000000 1.2400167167
7.3928043219 1.0000000000 0.8370111274
3.3661742884 1.0000000000 1.1250176938
7.5682092186 1.0000000000 0.3262217839
7.0548228722 1.0000000000 0.3718992992
7.5261024333 1.0000000000 0.4917778909
4.4845336353 1.0000000000 0.7570856290
4.1078081826 1.0000000000 0.8422274761
4.9314224390 1.0000000000 1.2863369332
6.6968165639 1.0000000000 0.6555293678
7.6399304991 1.0000000000 0.3128376199
5.8742176818 1.0000000000 0.4020753920
2.4534052695 1.0000000000 1.2623618888
5.5869633884 1.0000000000 0.7496438114
7.5603497877 1.0000000000 1.4668077246
3.6773575158 1.0000000000 1.1955491222
4.9615698814 1.0000000000 0.9272248658
2.4150639996 1.0000000000 1.4809553758
3.3159779480 1.0000000000 1.4655146959
4.8107128884 1.0000000000 0.7576460281
6.5462004191 1.0000000000 0.8050879989
7.5781175792 1.0000000000 1.4759381054
3.5679576033 1.0000000000 1.1594297991
6.0063164449 1.0000000000 0.7949523532
7.4396175670 1.0000000000 0.4228465260
5.6850799915 1.0000000000 0.4453521773
7.1066569128 1.0000000000 0.4652571337
5.3494425467 1.0000000000 0.8507287134
2.4921502320 1.0000000000 1.1874563541
7.1948646311 1.0000000000 1.3075463467
3.0268903311 1.0000000000 1.3472358257
3.8390349747 1.0000000000 1.2068152978
3.2243904858 1.0000000000 1.4245958403
3.3789996575 1.0000000000 1.1862968354
7.7748560341 1.0000000000 1.3865195348
6.0682692500 1.0000000000 1.2914752680
6.3352131647 1.0000000000 0.6287686802
3.1127461179 1.0000000000 1.2720793818
5.0515026629 1.0000000000 1.2345192499
3.5421732945 1.0000000000 1.0265349149
7.8069334954 1.0000000000 0.0208374844
6.9538692104 1.0000000000 1.2224643688
5.5310982633 1.0000000000 0.6601931218
4.8880043825 1.0000000000 1.2123130337
4.6028826601 1.0000000000 1.1201681900
4.3365470605 1.0000000000 1.2273567690
6.3163973505 1.0000000000 0.8658390053
4.2160201626 1.0000000000 0.9879658074
6.8187812475 1.0000000000 1.3064175438
6.1173891596 1.0000000000 0.7459417859
4.2997919561 1.0000000000 0.8173771010
6.6799966299 1.0000000000 1.0027600650
7.1272996469 1.0000000000 0.9968019742
6.7712049061 1.0000000000 1.1735642237
6.4641240041 1.0000000000 1.2333409376
7.7061142131 1.0000000000 1.1443677594
6.6706071230 1.0000000000 1.1745554421
4.6158894347 1.0000000000 0.7458589424
5.6355380479 1.0000000000 1.4521314244
7.2322309277 1.0000000000 0.3281951583
6.1925794261 1.0000000000 1.1830395488
2.3914642142 1.0000000000 1.3730470334
6.7020415080 1.0000000000 1.0236093317
7.6220150174 1.0000000000 1.0070701852
5.8597831044 1.0000000000 1.1785154183
7.1562615596 1.0000000000 1.4665905634
6.3202338340 1.0000000000 0.3723136245
4.5637498209 1.0000000000 1.2612676638
6.6572020663 1.0000000000 1.3180335944
6.4279724939 1.0000000000 0.9222835027
4.0578500271 1.0000000000 0.9304705292
6.0549808541 1.0000000000 0.7956003113
7.3495899552 1.0000000000 0.7965635274
5.1203349670 1.0000000000 1.1470091918
2.5670418711 1.0000000000 1.3160847911
6.8332698807 1.0000000000 1.1201148642
6.7742823257 1.0000000000 0.4569902190
5.1916362639 1.0000000000 1.2023390666
7.7945092398 1.0000000000 1.3052291065
7.1193532946 1.0000000000 0.7474831404
2.4005966188 1.0000000000 1.2670841531
4.4789325437 1.0000000000 0.7073932427
6.4144265559 1.0000000000 0.8503133493
7.1609948464 1.0000000000 0.7667705353
7.4920411357 1.0000000000 0.5433778788
3.9856478762 1.0000000000 1.0811018562
6.3564664864 1.0000000000 1.2662295613
3.8742285122 1.0000000000 0.9849275274
7.0018249037 1.0000000000 0.7174778236
5.2886582608 1.0000000000 0.6110781232
5.4758201307 1.0000000000 1.4019944789
5.8920380514 1.0000000000 0.7475846204
5.5143846245 1.0000000000 1.2972091536
7.6711258519 1.0000000000 0.8595238541
3.8152555635 1.0000000000 1.4196543799
6.0338581394 1.0000000000 1.4119734735
4.9033569409 1.0000000000 1.2121596963
2.9794625845 1.0000000000 1.1702605196
5.1105679492 1.0000000000 1.3302034594
1.9553357756 1.0000000000 1.4267738510
2.1381297532 1.0000000000 1.4458347277
3.7415475769 1.0000000000 1.1672757854
2.2195915219 1.0000000000 1.3662791799
6.4857727048 1.0000000000 0.7160645129
4.9577741081 1.0000000000 1.1611372434
7.6815074246 1.0000000000 1.0204090490
7.4979829227 1.0000000000 0.0930344148
5.2516887391 1.0000000000 0.5631819605
7.7669537590 1.0000000000 0.8176960506
4.3885659951 1.0000000000 1.3138115413
5.6472541652 1.0000000000 1.3117891448
6.5017176003 1.0000000000 0.6665450547
5.9798891001 1.0000000000 0.9784035713
2.9337082521 1.0000000000 1.3839977023
0.8511778909 1.0000000000 1.3741363955
5.7632704269 1.0000000000 0.7077797012
7.4821407268 1.0000000000 0.1016067916
5.1258345592 1.0000000000 0.7299130052
7.6295867623 1.0000000000 1.2566378287
7.0397008410 1.0000000000 0.4997909732
7.7311760717 1.0000000000 1.4744034964
5.7311557523 1.0000000000 0.5617948843
7.5012455698 1.0000000000 1.0598234058
4.7992690758 1.0000000000 1.2154538972
3.1757315076 1.0000000000 1.3906776325
4.9229062319 1.0000000000 0.9975272919
7.3205031395 1.0000000000 0.9635222276
3.5330934596 1.0000000000 1.2154683301
6.9920793541 1.0000000000 0.7959349770
6.2551237438 1.0000000000 1.1687819599
4.6566188338 1.0000000000 0.8721347546
4.7447388705 1.0000000000 1.3124385437
7.1983655881 1.0000000000 0.6713585119
3.6265601383 1.0000000000 1.1594097312
7.2806865331 1.0000000000 1.3524690887
4.1920834740 1.0000000000 1.3265074989
5.2537808403 1.0000000000 0.9547745310
6.8852634271 1.0000000000 0.6655324997
2.8211742439 1.0000000000 1.3164497905
5.7023821395 1.0000000000 0.5506570864
4.9556888042 1.0000000000 0.8107635505
5.7602083686 1.0000000000 1.4448326125
6.2926087565 1.0000000000 1.3047663055
4.1534743420 1.0000000000 1.2331597255
7.3870826401 1.0000000000 0.6753768744
4.2351004828 1.0000000000 1.0196997715
5.3284147590 1.0000000000 0.9289811520
7.8277579185 1.0000000000 1.1158273645
4.2802345060 1.0000000000 1.0692068744
7.2427436766 1.0000000000 0.7151425014
2.8046221797 1.0000000000 1.1513071183
5.5237908310 1.0000000000 1.4825450946
2.7469181731 1.0000000000 1.3857668392
4.5710283369 1.0000000000 1.4672820404
4.1674995165 1.0000000000 0.9879851012
6.4837090068 1.0000000000 1.1643703506
6.8430868862 1.0000000000 0.4686608974
7.0129284754 1.0000000000 0.5379985408
5.4442249334 1.0000000000 1.3414772575
6.6243878702 1.0000000000 0.3507112100
0.8102589220 1.0000000000 1.3696652087
7.1902010406 1.0000000000 0.7078728263
0.7282160789 1.0000000000 1.4396034412
2.0851960585 1.0000000000 1.3744139707
7.4243087179 1.0000000000 0.6602325303
6.6312864872 1.0000000000 1.4254117986
4.9953184329 1.0000000000 1.4084707669
6.6505609895 1.0000000000 0.5082542029
2.2614997404 1.0000000000 1.0943799564
4.5054161239 1.0000000000 0.9599634345
7.3264347316 1.0000000000 0.5638094545
5.7115786254 1.0000000000 1.0354602068
7.1270748315 1.0000000000 0.9002475197
3.9988164406 1.0000000000 1.1857277566
3.0117688314 1.0000000000 0.9437296972
2.5299882585 1.0000000000 1.0583562130
7.7765261980 1.0000000000 0.4990284328
2.5058897739 1.0000000000 1.2688562300
4.2383330343 1.0000000000 0.8517841988
2.5670339382 1.0000000000 1.2012056255
5.6322422860 1.0000000000 1.3268988270
3.7749519108 1.0000000000 1.1283912923
5.7745770747 1.0000000000 1.4117508190
6.4239789978 1.0000000000 1.1093120683
7.2701171128 1.0000000000 0.4181797537
6.1647455965 1.0000000000 1.4431237056
7.0570943648 1.0000000000 0.2118057615
6.8030612808 1.0000000000 1.3539163863
6.8528675803 1.0000000000 0.9738903028
6.2529544296 1.0000000000 0.9001917877
6.2791169325 1.0000000000 0.7190935811
2.0472044003 1.0000000000 1.2961224498
2.2601115253 1.0000000000 1.3434051966
6.8698615198 1.0000000000 0.4371774139
3.5738299795 1.0000000000 1.1361206417
3.6863919968 1.0000000000 1.1229931262
6.2686434590 1.0000000000 1.2779759535
1.6550348225 1.0000000000 1.4641954792
4.7083070786 1.0000000000 0.7189014230
5.0541822794 1.0000000000 0.6062617355
3.2633071424 1.0000000000 1.2218770710
4.6235193957 1.0000000000 1.0415526950
5.5246760080 1.0000000000 0.5675099674
7.6002835590 1.0000000000 0.7463050318
6.7892162672 1.0000000000 0.8660430954
3.2007950753 1.0000000000 1.3108100960
7.8248348163 1.0000000000 0.5836422484
4.1034063843 1.0000000000 1.0937483298
5.4677122192 1.0000000000 0.6270484598
2.5691809644 1.0000000000 1.1262693383
3.5081556586 1.0000000000 0.9197079774
5.7365475804 1.0000000000 0.9103337500
7.2549628903 1.0000000000 0.7031296129
7.1986010794 1.0000000000 0.1474048815
1.7048895726 1.0000000000 1.4232371694
5.9393039381 1.0000000000 0.6886745552
4.9732253122 1.0000000000 0.8967061743
6.8427793189 1.0000000000 1.4550395572
4.8885726451 1.0000000000 1.1923590279
5.2131789691 1.0000000000 1.0870840201
5.6923156585 1.0000000000 0.8145203986
5.3393977794 1.0000000000 1.0316841631
7.0866435812 1.0000000000 0.2136622514
6.6139592450 1.0000000000 0.5130102253
7.5912100345 1.0000000000 0.8557561629
1.2581472493 1.0000000000 1.3743771379
7.6789134438 1.0000000000 0.8054894802
5.2424667589 1.0000000000 0.6129345830
6.2778500553 1.0000000000 0.6455757884
5.9955065844 1.0000000000 0.5355029031
6.2136835464 1.0000000000 1.4100596512
6.5828021026 1.0000000000 0.8862355444
5.1204701840 1.0000000000 0.9937024368
5.6563027020 1.0000000000 0.6347727711
3.5553572178 1.0000000000 1.1715254601
6.0138791908 1.0000000000 0.5356954853
4.4840747288 1.0000000000 0.8531865071
2.4939412399 1.0000000000 1.1102369345
7.2721151211 1.0000000000 0.9090618322
7.1611347155 1.0000000000 1.3347152248
1.9360906687 1.0000000000 1.1590729818
2.5906799649 1.0000000000 1.3325298068
6.0363326910 1.0000000000 1.1474244122
5.7020711122 1.0000000000 1.4830622251
6.4509676190 1.0000000000 1.4518208656
4.7509374901 1.0000000000 0.7596621865
7.8123458554 1.0000000000 0.6297796604
2.7387234054 1.0000000000 1.0778897623
4.4838507634 1.0000000000 1.4463466856
7.7836095710 1.0000000000 0.2123937717
3.2367699289 1.0000000000 1.3947014802
6.4387471707 1.0000000000 0.3685235926
5.8133957899 1.0000000000 0.4367228638
6.8782321712 1.0000000000 1.1955602569
3.8169526484 1.0000000000 0.9123238492
6.6914039096 1.0000000000 1.3524810680
5.6408314510 1.0000000000 1.1626482477
5.3367645199 1.0000000000 0.5202210247
4.5243852149 1.0000000000 0.8786192029
0.6812404397 1.0000000000 1.3953250290
5.8140162308 1.0000000000 0.9647077147
7.4688285222 1.0000000000 0.2233997405
1.5126732867 1.0000000000 1.2519185735
4.8455447331 1.0000000000 0.7477362003
4.4948312824 1.0000000000 0.9937588148
5.2141741539 1.0000000000 1.4936351833
4.1170883313 1.0000000000 0.9463382639
3.7999766526 1.0000000000 1.1469882593
6.1364556768 1.0000000000 1.1602533781
5.4107654107 1.0000000000 1.2656319133
3.1887826427 1.0000000000 0.9992381837
5.9302435825 1.0000000000 0.7407751978
6.2809637279 1.0000000000 0.4471804434
4.5535535152 1.0000000000 1.3702145941
3.2186889459 1.0000000000 1.3703173294
1.5394625361 1.0000000000 1.4879085649
7.2578453230 1.0000000000 0.1856616871
4.7368954318 1.0000000000 1.0424201848
6.5395912624 1.0000000000 0.6737548469
4.5554830168 1.0000000000 1.3257644776
1.2210350139 1.0000000000 1.3497233189
3.6585488977 1.0000000000 1.0054412969
5.2397843085 1.0000000000 1.3635803719
4.1748573192 1.0000000000 1.0618394735
6.6341176996 1.0000000000 0.2900530824
4.4716488929 1.0000000000 1.0331278398
7.6260577724 1.0000000000 0.8166809855
3.9241448456 1.0000000000 1.2571228688
6.6592815158 1.0000000000 0.8800735096
7.2349915979 1.0000000000 0.6946504857
4.4946312976 1.0000000000 1.3278473459
5.3360275939 1.0000000000 1.2456222655
6.9700567094 1.0000000000 0.2400935049
3.6044210912 1.0000000000 1.0887034258
7.4806905158 1.0000000000 0.2780421144
6.9601433400 1.0000000000 0.4454015116
3.4238848279 1.0000000000 0.9139523063
5.5888661152 1.0000000000 1.2899452887
2.1880100043 1.0000000000 1.4327760555
6.4226798689 1.0000000000 1.0464005954
5.5999439525 1.0000000000 0.9558332270
3.4371155071 1.0000000000 1.4328332409
3.9495088915 1.0000000000 1.1218451311
5.3711214015 1.0000000000 1.0479920036
0.7817687554 1.0000000000 1.4950166949
4.7745802471 1.0000000000 1.1123074960
0.5967598233 1.0000000000 1.4633420264
4.1823528069 1.0000000000 0.7794549445
2.2949550493 1.0000000000 1.4582982601
6.9893360296 1.0000000000 1.4203230089
7.4078321663 1.0000000000 0.6494705824
2.3025755248 1.0000000000 1.3485231649
7.4639797329 1.0000000000 1.1307791619
3.2165880972 1.0000000000 1.0100134968
7.2598103564 1.0000000000 0.5076071754
6.8667707751 1.0000000000 0.9769109578
1.8428657700 1.0000000000 1.1689649365
3.0352754201 1.0000000000 1.2267414193
4.4342941315 1.0000000000 1.4501554132
6.1526178389 1.0000000000 0.9286550163
3.9991934567 1.0000000000 0.7974330388
6.3620802195 1.0000000000 1.2496569754
5.2185464195 1.0000000000 0.7889553944
6.8239021659 1.0000000000 0.8449654499
4.5220840533 1.0000000000 0.7278490200
7.7607668223 1.0000000000 0.7015971352
7.1116636046 1.0000000000 1.3844757665
6.6485273568 1.0000000000 0.8069234684
7.7814911860 1.0000000000 0.7378267677
4.8516724181 1.0000000000 1.4493762435
6.2206754061 1.0000000000 0.5545812000
6.2924137643 1.0000000000 1.0426141155
4.4848427191 1.0000000000 1.2854474967
7.2143307316 1.0000000000 0.7914831824
4.8816615675 1.0000000000 0.7043014448
7.7997040945 1.0000000000 0.7136200238
6.7375640545 1.0000000000 1.1534746160
5.1693386466 1.0000000000 0.9686257454
7.5267103249 1.0000000000 0.2966759911
7.6231898918 1.0000000000 0.3174791889
4.0848779152 1.0000000000 1.3484801226
1.2447937033 1.0000000000 1.3310237743
6.7104450806 1.0000000000 0.5787636131
6.9421592538 1.0000000000 0.5475803197
4.8733644554 1.0000000000 1.2042840717
4.9696225059 1.0000000000 0.6246511304
3.6110925062 1.0000000000 1.1821711545
4.0065376715 1.0000000000 1.1190626651
3.4935805840 1.0000000000 0.8622117921
6.8653639810 1.0000000000 1.0133143418
6.3426404960 1.0000000000 1.1297031765
5.1747026187 1.0000000000 1.2220331772
4.6260241163 1.0000000000 0.8039032648
6.2589720631 1.0000000000 0.6575207237
4.8694398143 1.0000000000 1.4993681929
1.2601946637 1.0000000000 1.2842338639
5.0120695121 1.0000000000 0.6514300183
5.3786007189 1.0000000000 0.8734227767
2.6654470631 1.0000000000 1.4979155760
4.6789022314 1.0000000000 1.4586133063
5.4660318839 1.0000000000 1.1338450966
2.9009498209 1.0000000000 1.0862488965
7.6175510540 1.0000000000 0.9294061063
5.7868209485 1.0000000000 0.8746284963
6.9249100717 1.0000000000 1.0628082334
3.7818852056 1.0000000000 0.9276786541
6.8644108484 1.0000000000 1.0524998700
5.7751883494 1.0000000000 0.7764306788
2.4933420680 1.0000000000 1.2169766976
4.0926113028 1.0000000000 0.8952684973
5.4979704263 1.0000000000 0.7131456869
7.8470014687 1.0000000000 1.1509639629
6.6883145152 1.0000000000 0.8979439463
7.7304909898 1.0000000000 1.2224991702
7.4115677092 1.0000000000 1.4462562410
3.5948609064 1.0000000000 1.1007554531
4.5007070752 1.0000000000 0.7730897284
5.6712160189 1.0000000000 0.5572665564
6.3602468645 1.0000000000 0.9914925967
1.6945286220 1.0000000000 1.2290254841
3.4655880288 1.0000000000 0.9870736729
6.1075857945 1.0000000000 0.9085059394
1.2127522756 1.0000000000 1.3262817185
4.8622380165 1.0000000000 0.9543931747
4.9318736763 1.0000000000 0.9694989540
3.8991679317 1.0000000000 0.9302144870
3.0534657964 1.0000000000 1.2076437592
7.5312529242 1.0000000000 0.3151727179
5.3770402555 1.0000000000 0.9652965684
2.2437531125 1.0000000000 1.4231795126
5.3114144928 1.0000000000 0.5586723813
3.4787207532 1.0000000000 0.8960017096
3.8807674533 1.0000000000 0.8563347098
2.5512260997 1.0000000000 1.0790417027
4.4350947799 1.0000000000 0.8933147434
4.2766533261 1.0000000000 1.3147511469
2.5959898579 1.0000000000 1.3897522690
7.3485803605 1.0000000000 0.6653272841
3.3717397374 1.0000000000 1.3448476687
6.1805519465 1.0000000000 1.1692755658
7.5406831213 1.0000000000 1.2955893557
4.9500670461 1.0000000000 0.7191216599
3.9634821335 1.0000000000 1.4750980110
7.4558004871 1.0000000000 0.2017190846
3.0889155959 1.0000000000 0.9372436040
3.7935065829 1.0000000000 1.2243301108
4.0641220686 1.0000000000 1.0197721828
7.5402787456 1.0000000000 0.0682200911
5.9223582386 1.0000000000 1.3914966220
5.1188028708 1.0000000000 0.6731383580
5.2191133596 1.0000000000 1.3006966087
4.6244522380 1.0000000000 1.1866102076
3.4509118087 1.0000000000 1.1868836114
4.0680201500 1.0000000000 0.9978160787
5.0471772900 1.0000000000 0.7141715555
6.8623644364 1.0000000000 0.2906657547
7.5714784277 1.0000000000 0.3493706652
4.6021454195 1.0000000000 0.8165991618
4.4989212830 1.0000000000 1.3063025528
6.9450025679 1.0000000000 0.1883399397
4.9497659137 1.0000000000 0.6266902215
7.6712649065 1.0000000000 1.2672756063
2.6447542571 1.0000000000 1.0243426990
2.4700111909 1.0000000000 1.0997620215
6.4127340128 1.0000000000 1.4582936756
6.1341381997 1.0000000000 0.3379592726
4.8006954619 1.0000000000 0.7390508913
5.8794873216 1.0000000000 0.9273561385
6.7726354757 1.0000000000 1.3817131406
6.7619190184 1.0000000000 0.4770512594
5.8455892487 1.0000000000 1.0881175434
6.3964218790 1.0000000000 0.6425720517
4.4631956727 1.0000000000 0.8585675617
7.3981772010 1.0000000000 0.6382010962
4.5876780693 1.0000000000 0.7368607399
6.5204925070 1.0000000000 0.9361826283
6.0841467891 1.0000000000 1.0720524245
5.5513250703 1.0000000000 1.4129094437
3.6956502437 1.0000000000 0.8931039848
4.7501490252 1.0000000000 1.2981136787
5.1026367699 1.0000000000 0.6856840238
0.9747343204 1.0000000000 1.3874700255
6.4440566534 1.0000000000 1.4791380980
1.2199282716 1.0000000000 1.4702787037
3.1022392010 1.0000000000 1.0209391648
5.2274256727 1.0000000000 0.8505472186
3.4460177909 1.0000000000 1.1360422112
7.8068451878 1.0000000000 1.2470036127
6.3775603943 1.0000000000 0.5998430766
5.4165716262 1.0000000000 0.9936326537
2.9591271922 1.0000000000 1.4206839313
7.5321561573 1.0000000000 1.1637125133
3.4146885843 1.0000000000 1.4803092461
7.2243832122 1.0000000000 0.2205685426
6.6786900423 1.0000000000 0.9114157640
5.3580192335 1.0000000000 0.8211966512
2.7281591529 1.0000000000 1.2168321201
2.5240407920 1.0000000000 1.2970587201
4.0828446317 1.0000000000 1.4115903550
6.0366451788 1.0000000000 0.7394356287
7.5373127427 1.0000000000 0.6116925867
6.5340608205 1.0000000000 0.9003787572
4.0618281545 1.0000000000 1.4550063013
2.8931243478 1.0000000000 1.2505670377
6.3271228603 1.0000000000 0.3900201446
2.8498325159 1.0000000000 1.0504762411
6.0284843604 1.0000000000 0.9737623269
2.3467716027 1.0000000000 1.3604807067
4.5530407920 1.0000000000 0.7611475400
6.8881606818 1.0000000000 1.4549389652
6.9769944125 1.0000000000 0.5048676336
7.7178992663 1.0000000000 1.4093003697
5.0531334157 1.0000000000 1.4550927872
5.0903022730 1.0000000000 1.1047405276
5.2669510524 1.0000000000 1.3454620088
7.0337880253 1.0000000000 0.9805911869
2.9021250444 1.0000000000 1.2885907480
4.8498287434 1.0000000000 1.0481380798
6.2322956562 1.0000000000 0.4351295433
2.0544186374 1.0000000000 1.4155686412
4.2855106022 1.0000000000 1.4525220842
4.5436242398 1.0000000000 0.6451349917
7.3921675424 1.0000000000 1.1657433464
6.0145801899 1.0000000000 1.0522502991
4.7314021381 1.0000000000 0.6484793065
3.5323620968 1.0000000000 0.8436902513
6.9903536576 1.0000000000 1.3570498892
4.4876255265 1.0000000000 1.3875357887
3.7428788043 1.0000000000 1.4030702527
4.3327698454 1.0000000000 0.9507248837
4.4195257345 1.0000000000 0.9005569578
7.0633103252 1.0000000000 1.1584807309
4.4184842651 1.0000000000 0.7299914637
2.9529280869 1.0000000000 1.0494971552
7.1801608974 1.0000000000 0.2670593037
7.7196866827 1.0000000000 1.1631257669
7.0678403127 1.0000000000 0.8449787306
1.5470838027 1.0000000000 1.2901839028
6.2585731822 1.0000000000 0.7336517229
4.4021645167 1.0000000000 1.0201840635
0.7975938880 1.0000000000 1.4716913305
0.9989757159 1.0000000000 1.3574485555
6.0669337910 1.0000000000 1.4895507749
5.8176028515 1.0000000000 1.2721616380
6.5603763844 1.0000000000 1.1198743208
3.7680457769 1.0000000000 1.3232567207
6.0439562748 1.0000000000 0.4419708057
7.2058574518 1.0000000000 0.2723276638
7.6133657510 1.0000000000 0.3051131164
4.0602960354 1.0000000000 1.1292020158
7.2509115582 1.0000000000 0.8598959552
4.5058468480 1.0000000000 1.2402777908
6.6512917306 1.0000000000 0.4005482952
5.1544168806 1.0000000000 0.9962493928
5.9615803930 1.0000000000 0.9045401525
1.3434350523 1.0000000000 1.3821904316
5.0225915294 1.0000000000 0.8996224828
6.1258777806 1.0000000000 0.5613818161
5.4248412219 1.0000000000 0.5901937996
6.1937684880 1.0000000000 1.2833030625
6.0886563988 1.0000000000 0.9665212384
6.8264529156 1.0000000000 0.5901722443
7.6919209810 1.0000000000 0.1694137264
1.8399711920 1.0000000000 1.2458110356
6.7328905305 1.0000000000 1.1390317958
6.7529845072 1.0000000000 0.5194756573
6.8136662657 1.0000000000 1.1215263435
4.1532183094 1.0000000000 0.8361335068
2.5724562597 1.0000000000 1.4053789173
5.7546646610 1.0000000000 1.3032041252
6.8822960056 1.0000000000 1.3995072961
4.3095830678 1.0000000000 1.3776178207
5.2289776974 1.0000000000 1.4081337498
5.3058148059 1.0000000000 1.4148475672
4.5860635245 1.0000000000 1.4756227962
7.3887087077 1.0000000000 0.9261574819
4.3837335505 1.0000000000 0.8531993059
6.4460588556 1.0000000000 1.0297013164
6.5336237642 1.0000000000 0.4445265954
6.9186855457 1.0000000000 0.8242313623
6.1122536213 1.0000000000 0.6912215665
4.8561380160 1.0000000000 0.7751633200
1.4059659966 1.0000000000 1.4303173982
7.7295908278 1.0000000000 1.1138898622
3.5562990264 1.0000000000 1.2514964507
7.1189285255 1.0000000000 1.0496846993
7.3075698390 1.0000000000 0.9799615595
1.6668618815 1.0000000000 1.2975869541
6.5521316612 1.0000000000 0.5901301893
6.1462158184 1.0000000000 0.4104746677
6.0213578646 1.0000000000 1.4031387487
6.9689524979 1.0000000000 0.6615082484
7.5711620409 1.0000000000 1.1664735860
3.2020298432 1.0000000000 1.0964893278
1.1098566909 1.0000000000 1.4736508623
2.5528227701 1.0000000000 1.1192555290
3.6867384315 1.0000000000 1.2860831107
6.1763973260 1.0000000000 1.3624983077
4.9639706887 1.0000000000 0.5967381584
6.8228996734 1.0000000000 1.4061156794
6.5010004314 1.0000000000 0.4388600534
2.0133905736 1.0000000000 1.2130145550
3.3246522176 1.0000000000 1.3086048118
5.3094045272 1.0000000000 1.2943213004
6.7371819458 1.0000000000 0.6458814980
7.0961263607 1.0000000000 0.4970201558
5.1100004654 1.0000000000 1.1316844964
5.1199458346 1.0000000000 0.6876732891
7.0761310694 1.0000000000 1.0420200771
7.0907527726 1.0000000000 0.6323621179
6.3678111983 1.0000000000 0.3753113896
7.4528917388 1.0000000000 0.3888620549
4.7818479772 1.0000000000 1.1311040275
5.2902666130 1.0000000000 1.3017067580
6.7067895591 1.0000000000 0.2941356861
3.7506157071 1.0000000000 1.1905466732
5.8628335923 1.0000000000 0.4805880518
6.7954333418 1.0000000000 0.3190507125
4.2759323005 1.0000000000 1.1758430271
6.4253026276 1.0000000000 1.3346604782
5.4852417730 1.0000000000 1.0289499693
5.8492784699 1.0000000000 0.5063849546
6.1408068481 1.0000000000 1.1323923729
5.3381355920 1.0000000000 1.4989670224
5.3128658056 1.0000000000 1.1042973512
7.5485862714 1.0000000000 1.0431150473
2.4278910387 1.0000000000 1.2900824811
6.2794530479 1.0000000000 0.8456397588
6.9366557378 1.0000000000 0.4675798747
6.4938035094 1.0000000000 1.4972028508
6.5062403722 1.0000000000 1.4788387364
5.3521044004 1.0000000000 1.2485368084
6.5667759627 1.0000000000 1.4902726368
7.2883407742 1.0000000000 0.5222761054
6.7685070652 1.0000000000 0.5368954662
7.1469012525 1.0000000000 0.4101428389
6.6887129924 1.0000000000 0.6354986879
5.0459341223 1.0000000000 0.5696424611
6.6877590501 1.0000000000 1.1452068382
6.9898247047 1.0000000000 0.8753872110
3.2181500524 1.0000000000 1.4645070368
3.1673321354 1.0000000000 1.3448450996
6.8404619336 1.0000000000 0.8771562017
3.9562032561 1.0000000000 0.8614534300
6.3432292365 1.0000000000 0.6726130086
7.0283113906 1.0000000000 1.2092151710
7.2128583278 1.0000000000 1.3252924203
7.0341718693 1.0000000000 0.3230181571
3.6667395267 1.0000000000 1.0352559643
7.1547267118 1.0000000000 0.9853458438
6.9560447966 1.0000000000 0.2481035644
5.6797189775 1.0000000000 1.2580731337
6.1064384745 1.0000000000 1.3427286590
4.5210218549 1.0000000000 0.8453783617
7.3173587552 1.0000000000 0.8446650260
2.9076874906 1.0000000000 1.3662205484
3.6905802813 1.0000000000 1.4720718519
7.2168119326 1.0000000000 0.7581520904
6.0275969588 1.0000000000 0.5681492038
7.1020281060 1.0000000000 1.1040443446
2.0928322764 1.0000000000 1.2583746491
6.0304869788 1.0000000000 0.5541691704
4.4725795800 1.0000000000 0.8426054317
7.7806067507 1.0000000000 0.6254502736
4.1812641113 1.0000000000 1.0463454575
7.0989045274 1.0000000000 1.1788210778
3.3127281760 1.0000000000 1.3494268784
7.5171892677 1.0000000000 0.1713105839
4.4213140969 1.0000000000 1.2832397029
4.4571627787 1.0000000000 1.3307190663
6.1345936793 1.0000000000 0.9114838747
5.4503784865 1.0000000000 1.1369541834
7.3131167337 1.0000000000 1.3149350688
5.2251257455 1.0000000000 0.8888914119
6.1547718813 1.0000000000 1.4210864927
0.8196305303 1.0000000000 1.4687955745
1.8090328110 1.0000000000 1.3425858574
2.6242741137 1.0000000000 1.1088299579
5.6897214975 1.0000000000 1.4967518738
7.7518290427 1.0000000000 0.8041129368
5.7229861748 1.0000000000 1.3111697979
7.7300213849 1.0000000000 0.9774582763
5.5581354837 1.0000000000 0.5910656546
2.6746981154 1.0000000000 1.0703632036
1.5070887255 1.0000000000 1.3513522237
5.6456284778 1.0000000000 0.5849158298
5.1980093754 1.0000000000 1.1268487454
4.0186048452 1.0000000000 0.8328031685
5.9868567549 1.0000000000 0.5553138092
5.1035764478 1.0000000000 0.8004758480
2.3413981348 1.0000000000 1.3199340749
6.3949016010 1.0000000000 0.9172146122
5.6866214292 1.0000000000 0.7189741767
5.2895949066 1.0000000000 0.8768260342
5.3044872439 1.0000000000 0.8826299889
7.0383876149 1.0000000000 1.2623396387
6.9494352580 1.0000000000 0.9229001073
7.4543334907 1.0000000000 1.2564526356
5.7662715972 1.0000000000 1.0032740853
6.7655407576 1.0000000000 0.5071726101
2.3700492886 1.0000000000 1.1935891992
7.4215697950 1.0000000000 1.0772577790
6.9086230948 1.0000000000 0.3322255212
6.3155847068 1.0000000000 0.5333684135
6.0853979981 1.0000000000 0.5488646658
7.4166066470 1.0000000000 0.1885069008
7.0948113202 1.0000000000 0.6866484361
5.9715028162 1.0000000000 0.6035430759
4.0384388010 1.0000000000 0.7535993827
4.9496860982 1.0000000000 1.0230989965
7.2084962064 1.0000000000 0.2489182616
6.7611528050 1.0000000000 1.4281225298
6.2176892701 1.0000000000 0.5279637627
7.0532091248 1.0000000000 1.0399102595
5.8509844877 1.0000000000 0.4364222775
2.2505980949 1.0000000000 1.3183126012
6.0519794161 1.0000000000 1.3259357020
5.7946110346 1.0000000000 1.3368338473
6.0741806188 1.0000000000 1.2469281726
6.4840255135 1.0000000000 0.9197659712
7.1375456212 1.0000000000 0.1918177462
4.8201786910 1.0000000000 0.7702654775
6.4193850318 1.0000000000 1.3140260154
3.0802250751 1.0000000000 1.1651065376
7.2158172496 1.0000000000 1.4915645106
3.9981770786 1.0000000000 1.2031396287
4.3970088754 1.0000000000 0.7215397322
1.6548706878 1.0000000000 1.2125177955
7.4225617096 1.0000000000 0.9733307663
5.2035777721 1.0000000000 0.7001286583
1.9836120275 1.0000000000 1.3716626047
7.1720090581 1.0000000000 1.4836052075
3.3121746989 1.0000000000 0.9408569229
6.1188150548 1.0000000000 0.6222359894
5.4973530042 1.0000000000 0.8820500079
7.0658217867 1.0000000000 0.9573063392
5.1803141713 1.0000000000 0.8558616136
4.4170461227 1.0000000000 1.1385176525
4.8004070626 1.0000000000 0.9691431527
2.2748757549 1.0000000000 1.4536785534
6.6786486026 1.0000000000 0.8225910612
7.2824318190 1.0000000000 0.2738697537
6.0454779483 1.0000000000 0.5349334842
3.6120699419 1.0000000000 1.0080556541
3.0515543332 1.0000000000 1.4034995273
4.0189906751 1.0000000000 1.4856526597
5.9740040132 1.0000000000 1.4824631466
4.3988959755 1.0000000000 0.9710247077
2.1906483044 1.0000000000 1.1312815155
5.5329818546 1.0000000000 1.1037050402
4.0081459325 1.0000000000 1.3603078158
5.7562808604 1.0000000000 1.0493281042
3.0956077370 1.0000000000 1.1581286183
3.5177320954 1.0000000000 1.4524280415
7.6214141584 1.0000000000 0.5780154166
7.2303188064 1.0000000000 0.5593280881
2.3780601416 1.0000000000 1.0848573473
5.1838811706 1.0000000000 1.3050169725
7.6681544363 1.0000000000 0.9719739747
6.5855343303 1.0000000000 0.6699248258
7.6908970573 1.0000000000 0.2672940321
7.3635204255 1.0000000000 1.1816348413
7.8527419942 1.0000000000 1.0275507135
6.1068509448 1.0000000000 0.5974995921
4.6938258954 1.0000000000 0.9527690523
4.7034164046 1.0000000000 0.7012128194
4.6206930100 1.0000000000 1.2984826121
0.6470456856 1.0000000000 1.4454710188
3.0622723091 1.0000000000 1.0681959906
7.1825592075 1.0000000000 0.8420240359
7.3108146176 1.0000000000 1.1183251425
4.7168124824 1.0000000000 0.7721654951
5.2487350148 1.0000000000 0.8312174221
6.2149104956 1.0000000000 0.4917460981
6.4912348650 1.0000000000 0.5423255464
6.6819297112 1.0000000000 0.9749164192
3.2798193009 1.0000000000 1.4072142374
7.0415181819 1.0000000000 1.0724711235
3.7369867390 1.0000000000 0.9117632913
6.8670677492 1.0000000000 0.9570759248
6.1219291193 1.0000000000 1.3216042143
7.0329553017 1.0000000000 0.4574015680
4.7901418538 1.0000000000 1.1953827991
5.6481807308 1.0000000000 0.6135026208
3.4274704024 1.0000000000 1.4650877242
5.8249337199 1.0000000000 1.3227816475
6.0014694882 1.0000000000 0.7183289102
5.9347502425 1.0000000000 0.8849146828
4.7306440912 1.0000000000 1.2186861027
3.4604566703 1.0000000000 1.3994313298
2.8501182371 1.0000000000 1.4097019425
4.4248487706 1.0000000000 1.4996536467
1.7670749802 1.0000000000 1.2306568158
6.9816151620 1.0000000000 0.4768839595
6.1006705466 1.0000000000 0.3646471766
6.8548158121 1.0000000000 0.5289894302
7.6026196297 1.0000000000 0.9643965571
4.9481918694 1.0000000000 1.1120220525
7.8303082375 1.0000000000 0.9007995774
7.5860952651 1.0000000000 0.2045932716
1.8756745398 1.0000000000 1.4183485685
5.9016145111 1.0000000000 0.4084519834
6.6443086113 1.0000000000 1.0510678545
4.2155143224 1.0000000000 1.1979882886
6.7297916487 1.0000000000 0.4008133660
6.1790370489 1.0000000000 0.8899329830
6.9953840710 1.0000000000 1.0709090996
1.0362042442 1.0000000000 1.4009797360
7.3014342651 1.0000000000 1.2201020488
5.6485640704 1.0000000000 1.0930602729
7.2481971643 1.0000000000 0.3108626539
6.8982860664 1.0000000000 0.8279842742
3.4732036937 1.0000000000 1.3887492013
