6.4913120270 0.2431705594 0.0000000000
4.3520493507 0.3330122828 0.0000000000
2.3442549706 0.0975657254 0.0000000000
4.3060765266 0.4557487965 0.0000000000
4.7994046211 0.4274616539 0.0000000000
2.2477290630 0.1990847737 0.0000000000
2.5996613503 0.1978336722 0.0000000000
6.3355412483 0.5936561823 0.0000000000
2.2035427094 0.1002125442 0.0000000000
5.2495141029 0.1953474879 0.0000000000
4.3117661476 0.0450142771 0.0000000000
6.3416805267 0.2383636534 0.0000000000
3.5142436028 0.1347409934 0.0000000000
5.0292668343 0.4121559262 0.0000000000
7.0952792168 0.1175852045 0.0000000000
4.6011729240 0.3003429472 0.0000000000
2.3784554005 0.0522051528 0.0000000000
7.8307957649 0.2345576435 0.0000000000
6.3654637337 0.7328432798 0.0000000000
6.4157180786 0.0008621685 0.0000000000
7.0882420540 0.3016872108 0.0000000000
4.5938878059 0.5294584036 0.0000000000
7.7718586922 0.1962544471 0.0000000000
7.8517484665 0.8634385467 0.0000000000
6.8952422142 0.3794714510 0.0000000000
7.7350077629 0.8805400729 0.0000000000
6.4717936516 0.1736276001 0.0000000000
5.1833138466 0.1169085801 0.0000000000
7.0423617363 0.2044280767 0.0000000000
6.7384901047 0.4340218306 0.0000000000
7.3990087509 0.1594066620 0.0000000000
7.4928832054 0.9416589141 0.0000000000
2.6187698841 0.0810759217 0.0000000000
6.6012721062 0.2505148649 0.0000000000
1.8632965088 0.0577868149 0.0000000000
6.6312026978 0.0501033552 0.0000000000
7.6142969131 0.0394925512 0.0000000000
5.6400823593 0.5365942717 0.0000000000
6.3981170654 0.4999222755 0.0000000000
6.2580070496 0.3519206047 0.0000000000
7.1123394966 0.0619413443 0.0000000000
3.3932142258 0.2882288992 0.0000000000
7.8474645615 0.3049197197 0.0000000000
7.2554717064 0.7590093017 0.0000000000
6.0143303871 0.3810013235 0.0000000000
5.2259969711 0.3622544408 0.0000000000
5.0596342087 0.1265320629 0.0000000000
5.0827260017 0.5035573244 0.0000000000
7.5560088158 0.9085862041 0.0000000000
6.3313884735 0.0625311136 0.0000000000
4.8460144997 0.5870218873 0.0000000000
7.7171325684 0.6111641526 0.0000000000
1.8685133457 0.1884120107 0.0000000000
7.7944202423 0.7890964746 0.0000000000
7.3031563759 0.0808861032 0.0000000000
5.0349135399 0.6142359376 0.0000000000
5.2412953377 0.4120642543 0.0000000000
6.8574013710 0.6165826917 0.0000000000
6.7166657448 0.6768969893 0.0000000000
6.3678665161 0.2907874584 0.0000000000
6.6272420883 0.8039386868 0.0000000000
4.8642506599 0.1731497943 0.0000000000
5.3688445091 0.0566272102 0.0000000000
3.2634263039 0.2192786783 0.0000000000
6.9420170784 0.5119988322 0.0000000000
6.0387716293 0.3282146454 0.0000000000
3.2274656296 0.0470388457 0.0000000000
2.0852692127 0.1224642470 0.0000000000
7.5471706390 0.9555246830 0.0000000000
5.5423426628 0.6525810957 0.0000000000
1.1248503923 0.0028197640 0.0000000000
3.3844127655 0.0890534222 0.0000000000
4.3399133682 0.1972032040 0.0000000000
7.7759065628 0.3985531032 0.0000000000
4.3799657822 0.5213342309 0.0000000000
6.7070288658 0.7810696363 0.0000000000
0.6767384410 0.0612796806 0.0000000000
3.8392846584 0.1369477659 0.0000000000
3.4646937847 0.3026326299 0.0000000000
1.4174907207 0.0657501072 0.0000000000
7.4120573997 0.6737399101 0.0000000000
6.3755321503 0.2093078792 0.0000000000
5.9635453224 0.5494929552 0.0000000000
0.8795902133 0.0041735461 0.0000000000
4.5046687126 0.4980072379 0.0000000000
1.1618269682 0.0838686004 0.0000000000
4.0557813644 0.1975109279 0.0000000000
4.2143816948 0.5200236440 0.0000000000
3.9391994476 0.4209724367 0.0000000000
7.3947710991 0.0917739272 0.0000000000
1.5486525297 0.0490569919 0.0000000000
4.6006770134 0.0889843628 0.0000000000
4.7152409554 0.4633952975 0.0000000000
7.3534555435 0.7794125080 0.0000000000
3.5923261642 0.0395556763 0.0000000000
4.8970484734 0.3378904760 0.0000000000
6.4286227226 0.2647216320 0.0000000000
7.7781929970 0.9484921098 0.0000000000
5.5532336235 0.0376841053 0.0000000000
6.6435532570 0.7337692380 0.0000000000
6.2770552635 0.3072940409 0.0000000000
2.6435794830 0.2958153486 0.0000000000
1.9545311928 0.1187190264 0.0000000000
6.4353208542 0.0518635325 0.0000000000
5.2233438492 0.0664930567 0.0000000000
1.5309960842 0.1587471217 0.0000000000
6.0959410667 0.6845805645 0.0000000000
6.8216099739 0.6716232896 0.0000000000
7.3809070587 0.3224159181 0.0000000000
5.1137294769 0.0653459653 0.0000000000
7.5081634521 0.0564866364 0.0000000000
6.4649152756 0.3044355810 0.0000000000
4.8096399307 0.5464698076 0.0000000000
4.5316524506 0.0046948544 0.0000000000
7.1669244766 0.6721034646 0.0000000000
6.0808577538 0.2413309216 0.0000000000
5.7720284462 0.1762360632 0.0000000000
6.3400382996 0.4479086399 0.0000000000
7.6419281960 0.8942988515 0.0000000000
5.4570369720 0.2406772524 0.0000000000
5.9896526337 0.3093747199 0.0000000000
0.9783514142 0.0287961662 0.0000000000
5.8584022522 0.1883106977 0.0000000000
5.3586707115 0.4519647658 0.0000000000
5.7835507393 0.5531601310 0.0000000000
4.2643013000 0.1699825376 0.0000000000
7.8159160614 0.4438821971 0.0000000000
6.6924085617 0.5875078440 0.0000000000
7.0315518379 0.4178796411 0.0000000000
6.1412773132 0.4947056472 0.0000000000
2.5147366524 0.1640861779 0.0000000000
7.1932282448 0.0502191186 0.0000000000
4.7400150299 0.0129311560 0.0000000000
2.4593915939 0.1234412119 0.0000000000
5.4251055717 0.3600166142 0.0000000000
5.3658313751 0.1961488575 0.0000000000
4.3281326294 0.3810668290 0.0000000000
7.4431142807 0.8280186653 0.0000000000
4.8657908440 0.5163996220 0.0000000000
6.1949911118 0.1572806686 0.0000000000
5.4172110558 0.0377347879 0.0000000000
4.8412342072 0.1179876402 0.0000000000
7.7578258514 0.3017154932 0.0000000000
7.8160514832 0.0026743761 0.0000000000
3.8456506729 0.2288353145 0.0000000000
6.8393268585 0.7192016840 0.0000000000
2.0843775272 0.1734079570 0.0000000000
2.7059526443 0.1328196377 0.0000000000
5.6495943069 0.7114521265 0.0000000000
6.1099853516 0.6103940606 0.0000000000
5.0082087517 0.5095282197 0.0000000000
3.1585342884 0.3754596710 0.0000000000
6.2284722328 0.7502163053 0.0000000000
6.4777169228 0.5078387260 0.0000000000
3.0042121410 0.2319751978 0.0000000000
7.8567762375 0.4761808217 0.0000000000
7.5761785507 0.6611090899 0.0000000000
4.9161310196 0.5435203910 0.0000000000
7.8012037277 0.1443447620 0.0000000000
3.9972012043 0.3166370988 0.0000000000
1.2270760536 0.0518150553 0.0000000000
3.0797126293 0.3177348971 0.0000000000
2.5426898003 0.2743618488 0.0000000000
6.6913704872 0.7217708230 0.0000000000
2.5477232933 0.0650146008 0.0000000000
4.2681126595 0.0377025828 0.0000000000
4.4154849052 0.1267764717 0.0000000000
6.1513657570 0.2600625455 0.0000000000
5.8567290306 0.2951537073 0.0000000000
3.4669048786 0.0482098572 0.0000000000
6.8497285843 0.3569595814 0.0000000000
2.7139925957 0.2649388015 0.0000000000
7.7422676086 0.7900640965 0.0000000000
7.6683735847 0.1795663834 0.0000000000
6.0382671356 0.2163293660 0.0000000000
2.9913253784 0.0288308766 0.0000000000
5.0442118645 0.3347309828 0.0000000000
5.2972998619 0.6458240747 0.0000000000
3.9274597168 0.3162020743 0.0000000000
3.6763882637 0.3187974989 0.0000000000
7.8234000206 0.9600899220 0.0000000000
6.2318129539 0.0901024565 0.0000000000
5.4330034256 0.2938362062 0.0000000000
3.1807539463 0.0874088556 0.0000000000
7.0810680389 0.5183132887 0.0000000000
5.4713225365 0.3900492489 0.0000000000
6.5709834099 0.0479406454 0.0000000000
3.7572278976 0.0996032953 0.0000000000
6.7051277161 0.0947508961 0.0000000000
1.7294301987 0.0320226923 0.0000000000
1.9771345854 0.1981715411 0.0000000000
2.7871668339 0.2259463370 0.0000000000
6.8406577110 0.7671599388 0.0000000000
7.0187993050 0.0986791998 0.0000000000
6.3245282173 0.3265771270 0.0000000000
6.7868990898 0.7621705532 0.0000000000
3.3157963753 0.0438294932 0.0000000000
7.1410832405 0.8067013621 0.0000000000
2.7660269737 0.0146608911 0.0000000000
7.3422460556 0.8434852958 0.0000000000
4.9560976028 0.3188778460 0.0000000000
3.6096141338 0.3110747337 0.0000000000
7.3933525085 0.8081590533 0.0000000000
5.0898900032 0.1656687409 0.0000000000
7.4190001488 0.4192238450 0.0000000000
2.3993883133 0.0904568657 0.0000000000
6.5540895462 0.6368067861 0.0000000000
4.9875807762 0.3638647795 0.0000000000
0.5030097365 0.0286593605 0.0000000000
6.0864763260 0.4260749221 0.0000000000
6.5035133362 0.8010988832 0.0000000000
3.0322101116 0.0945404470 0.0000000000
2.4805402756 0.2410404086 0.0000000000
7.7523665428 0.1360069811 0.0000000000
4.5181136131 0.1445184350 0.0000000000
3.4013657570 0.2233960479 0.0000000000
6.7377867699 0.0469966643 0.0000000000
6.1371660233 0.1855252981 0.0000000000
4.8242564201 0.0583909974 0.0000000000
4.0224318504 0.4172741771 0.0000000000
7.3024644852 0.2178168744 0.0000000000
5.9475717545 0.4727372825 0.0000000000
6.4696445465 0.6185761094 0.0000000000
6.7652292252 0.1664492637 0.0000000000
3.2300677299 0.2615338862 0.0000000000
6.0080156326 0.6969069242 0.0000000000
1.8257281780 0.0837878212 0.0000000000
4.5129671097 0.0868469551 0.0000000000
7.5220971107 0.8368683457 0.0000000000
7.4399566650 0.0504269041 0.0000000000
6.7938594818 0.3191752136 0.0000000000
5.5647797585 0.2541819811 0.0000000000
4.9512529373 0.2214826196 0.0000000000
4.2601399422 0.4716424346 0.0000000000
0.9274712801 0.0681019202 0.0000000000
2.6085147858 0.1495974660 0.0000000000
0.0811746716 0.1275497228 0.0079355212
0.0818231627 0.0356777050 0.0076949447
0.0852863491 0.6325116158 0.0064774714
0.0860813931 0.3894505501 0.0062143207
0.0880670920 0.8433933258 0.0055819694
0.0903761536 0.2780361176 0.0048920270
0.0961719379 0.9086837173 0.0033703961
0.1018550545 0.7380805612 0.0021626395
0.1073288247 0.5026992559 0.0012564308
0.1081395596 0.0856726989 0.0011434339
0.1124835163 0.2034357786 0.0006293779
0.0688012764 0.7004785538 0.0133466078
0.0611475855 0.5375435352 0.0175399110
0.0596677698 0.2071667016 0.0184335168
0.0539534837 0.3494443595 0.0221548397
0.0516371801 0.1606173217 0.0237939544
0.0467870645 0.7533674836 0.0274929218
0.0435065180 0.8109297156 0.0302179009
0.0427193977 0.4117020667 0.0309005715
0.0415327251 0.6254749894 0.0319516659
0.0346437655 0.2870542407 0.0386250392
0.0321737267 0.0713417456 0.0412862524
0.0305366237 0.9297087789 0.0431376062
0.0272570234 0.8734306097 0.0470832139
0.0249908399 0.4859643877 0.0500131957
0.0208685603 0.1352295876 0.0558527112
0.0203276426 0.5338782668 0.0566739924
0.0194508769 0.6706587076 0.0580353141
0.0184148476 0.3353553712 0.0596979447
0.0177453868 0.0328386351 0.0608024485
0.0171952378 0.2477580011 0.0617308430
0.0166547205 0.4291023314 0.0626609921
0.0152439270 0.7330471873 0.0651807487
0.0100226440 0.1897501796 0.0759600773
0.0062324428 0.5859733224 0.0860260800
0.0045232577 0.8045079112 0.0916796774
0.0035553658 0.6457515359 0.0954038799
0.0027733252 0.0558654256 0.0988199934
0.0025363278 0.6931540370 0.0999515206
0.0019554857 0.3583713174 0.1029824987
0.0010955314 0.5372310281 0.1084925234
0.0009825228 0.9068223238 0.1093663648
0.0005369678 0.7399328351 0.1134370416
0.0000257102 0.9589606524 0.1225098968
0.0000043212 0.1773799211 0.1240012571
0.0000000000 0.6643501520 1.1574587822
0.0000000000 0.7358667254 0.5903216004
0.0000000000 0.4109836519 1.2944465876
0.0000000000 0.5243787766 1.0347321033
0.0000000000 0.2800619006 1.1728129387
0.0000000000 0.7063326240 0.5397754908
0.0000000000 0.4647517204 1.1023602486
0.0000000000 0.8586807847 0.3299892247
0.0000000000 0.4542660713 1.1928040981
0.0000000000 0.1739519536 1.3282631636
0.0000000000 0.7922858000 1.3304704428
0.0000000000 0.8606935143 0.8123203516
0.0000000000 0.7736955285 0.9121674895
0.0000000000 0.6749410629 0.9842138886
0.0000000000 0.7834550738 0.5319342613
0.0000000000 0.8487546444 1.0930070877
0.0000000000 0.8710746169 1.2864668369
0.0000000000 0.7499621511 0.8171474338
0.0000000000 0.0514977984 1.3130471706
0.0000000000 0.4309594333 0.9924355745
0.0000000000 0.9554445148 0.8402419090
0.0000000000 0.3929637671 1.0898573399
0.0000000000 0.5766351223 0.7744663954
0.0000000000 0.7140262127 0.9373911619
0.0000000000 0.4744873941 1.0497212410
0.0000000000 0.6379981637 0.7152018547
0.0000000000 0.7435079813 1.1831357479
0.0000000000 0.9104683995 1.2243605852
0.0000000000 0.8852973580 1.1500267982
0.0000000000 0.7431176901 0.7172252536
0.0000000000 0.8693770170 0.4907600284
0.0000000000 0.6392774582 0.7596927285
0.0000000000 0.6876654625 0.7023000717
0.0000000000 0.5339050889 1.1358896494
0.0000000000 0.3284724653 1.1577163935
0.0000000000 0.1927341819 1.3733652830
0.0000000000 0.4825696349 1.1599111557
0.0000000000 0.6475105286 1.0217503309
0.0000000000 0.3660581410 1.2065773010
0.0000000000 0.1707070619 1.2099319696
0.0000000000 0.7891771197 1.1624301672
0.0000000000 0.7741998434 1.2182662487
0.0000000000 0.9023206234 1.3516319990
0.0000000000 0.8405506611 0.5411819220
0.0000000000 0.3298007548 1.2310876846
0.0000000000 0.9744982123 0.6653949022
0.0000000000 0.9146884680 0.8129887581
0.0000000000 0.2516608834 1.1323555708
0.0000000000 0.7116020918 0.7915606499
0.0000000000 0.8610405326 0.7687069178
0.0000000000 0.9088537693 0.6852747202
0.0000000000 0.5203446150 1.0935661793
0.0000000000 0.9619997740 1.3548716307
0.0000000000 0.3719016612 1.1428010464
0.0000000000 0.9527066946 1.0494943857
0.0000000000 0.5618509054 1.2025455236
0.0000000000 0.7621244788 0.9548113346
0.0000000000 0.2328875214 1.1747112274
0.0000000000 0.6857266426 0.7540851831
0.0000000000 0.6656591892 0.5981874466
0.0000000000 0.3439897299 1.0783026218
0.0000000000 0.2664059699 1.3052754402
0.0000000000 0.4307454824 1.3425415754
0.0000000000 0.9397740364 0.2190306634
0.0000000000 0.2712063491 1.2532641888
0.0000000000 0.3179729283 1.3196746111
0.0000000000 0.9291714430 0.7248750925
0.0000000000 0.9492399096 0.9775862694
0.0000000000 0.8906112313 0.3859860003
0.0000000000 0.9462372065 1.2901227474
0.0000000000 0.6998133063 1.1145853996
0.0000000000 0.6171752810 1.3229334354
0.0000000000 0.9995887876 0.7164086699
0.0000000000 0.7270457745 1.0623118877
0.0000000000 0.4979207814 1.2577463388
0.0000000000 0.3911114633 1.0124280453
0.0000000000 0.8271261454 0.6670533419
0.0000000000 0.7707411051 0.6236296892
0.0000000000 0.8713330030 0.9819523096
0.0000000000 0.9670862556 0.2799580991
0.0000000000 0.9644466043 0.5684409142
0.0000000000 0.5644473433 0.8981519341
0.0000000000 0.8513563871 0.7159829736
0.0000000000 0.7721766829 1.1181080341
0.0000000000 0.5637900829 1.2956558466
0.0000000000 0.9991304874 0.4159854650
0.0000000000 0.7431617379 1.2637411356
0.0000000000 0.1067313179 1.3629354239
0.0000000000 0.1723794043 1.2764438391
0.0000000000 0.9588987827 0.4730406702
0.0000000000 0.8002327681 1.0814325809
0.0000000000 0.8459088206 1.2277768850
0.0000000000 0.6993942261 1.3486467600
0.0000000000 0.9104021192 0.5548993349
0.0000000000 0.6332930923 0.9049269557
0.0000000000 0.9710023403 0.8830690980
0.0000000000 0.9207486510 1.0993945599
0.0000000000 0.1231845319 1.2995643616
0.0000000000 0.7449055910 0.9993471503
0.0000000000 0.5941396952 0.9670914412
0.0000000000 0.6550642848 1.2215576172
0.0000000000 0.6689146757 1.0804907084
0.0000000000 0.6471623778 0.8270725608
0.0000000000 0.5432858467 0.9735733271
0.0000000000 0.5842018723 1.3550355434
0.0000000000 0.8116452098 0.3789164722
0.0000000000 0.4834554791 1.3532251120
0.0000000000 0.6004462242 1.2655024529
0.0000000000 0.8534072042 0.8959636092
0.0000000000 0.8890310526 0.9284458160
0.0000000000 0.7323106527 0.6747816205
0.0000000000 0.3435871601 0.9773003459
0.0000000000 0.5382935405 1.3452053070
0.0000000000 0.5159930587 1.2022317648
0.0000000000 0.6173352599 0.6630073190
0.0000000000 0.8438921571 1.3434166908
0.0000000000 0.8048297167 1.0008832216
0.0000000000 0.9108117223 0.3367560506
0.0000000000 0.0900765210 1.2632411718
0.0000000000 0.4594333470 1.2934986353
0.0000000000 0.4370172620 0.8877098560
0.0000000000 0.8943549991 0.8618281484
0.0000000000 0.2790450752 1.0397650003
0.0000000000 0.2177280486 1.2258379459
0.0000000000 0.9490628242 0.9316079617
0.0000000000 0.5815930367 0.7066455483
0.0000000000 0.6941807270 1.2762945890
0.0000000000 0.8284612298 0.5870423913
0.0000000000 0.8136695623 0.7968600988
0.0000000000 0.9331679344 0.4008950293
0.0000000000 0.7927853465 0.8519277573
0.0000000000 0.5223539472 0.9261124730
0.0000000000 0.9490461349 1.1603448391
0.0000000000 0.4017738402 1.2438501120
0.0000000000 0.4292218685 1.1416388750
0.0000000000 0.4712047875 0.9382977486
0.0000000000 0.9679225087 0.7553473711
0.0000000000 0.9256124496 0.6266407371
0.0000000000 0.5326341987 0.8227763176
0.0000000000 0.7097512484 0.8668844104
0.0000000000 0.4743852913 0.7827323675
0.0000000000 0.8764384985 0.5836623311
0.0000000000 0.6071613431 1.1517809629
0.0000000000 0.4952797890 0.8589962721
0.0000000000 0.7994086146 0.7539995909
0.0000000000 0.5966824293 1.0996173620
0.0000000000 0.8885605335 0.4381337762
0.0000000000 0.9060291648 1.0543782711
0.0000000000 0.9941873550 1.1240289211
0.0000000000 0.3987511992 0.9187292457
0.0000000000 0.7849955559 0.4562149942
0.0000000000 0.2330964506 0.2497094125
0.0000000000 0.2218520194 0.3003841937
0.0000000000 0.2918644845 0.3053846359
0.0000000000 0.3093772233 0.7377849817
0.0000000000 0.1271603405 1.0465782881
0.0000000000 0.3270983696 0.8724271655
0.0000000000 0.3872016370 0.2809887528
0.0000000000 0.2815393209 0.4834342003
0.0000000000 0.2947944105 0.1811457872
0.0000000000 0.1011696532 0.4939819574
0.0000000000 0.7520985007 0.3801250756
0.0000000000 0.5128937960 0.4007255733
0.0000000000 0.1201737672 0.6042873859
0.0000000000 0.2584822178 0.3466881216
0.0000000000 0.5330438018 0.2562834918
0.0000000000 0.0537791774 0.4852906168
0.0000000000 0.5791329741 0.2807043195
0.0000000000 0.6338707805 0.5141437054
0.0000000000 0.0335289948 0.3367090225
0.0000000000 0.0826518014 0.7396486402
0.0000000000 0.0061816918 0.7070524693
0.0000000000 0.8216238618 0.3044131398
0.0000000000 0.2655259967 0.9854391217
0.0000000000 0.1361897886 1.0029335022
0.0000000000 0.1422530264 0.1594945043
0.0000000000 0.5460302234 0.2073879838
0.0000000000 0.1201878563 0.5431489348
0.0000000000 0.0360947363 1.1275454760
0.0000000000 0.6690376997 0.2920680046
0.0000000000 0.3095147908 0.2512646019
0.0000000000 0.0806718171 0.9781817198
0.0000000000 0.1060215682 0.3967330158
0.0000000000 0.5777054429 0.4186282158
0.0000000000 0.1270514131 0.8932252526
0.0000000000 0.0041031078 0.2954716980
0.0000000000 0.4840901792 0.2927989960
0.0000000000 0.2399339527 0.4145958126
0.0000000000 0.7171798348 0.2929309905
0.0000000000 0.3288806081 0.5011024475
0.0000000000 0.1268957108 1.2039624453
0.0000000000 0.3633639216 0.8023951650
0.0000000000 0.2686331868 0.8826954365
0.0000000000 0.1205188110 0.6925963163
0.0000000000 0.5325154662 0.3026243448
0.0000000000 0.2354489565 0.5336874723
0.0000000000 0.2796095312 0.4376193583
0.0000000000 0.2879387140 0.9426407218
0.0000000000 0.0826992765 1.1028282642
0.0000000000 0.8162188530 0.2417438477
0.0000000000 0.2875155807 0.5312390327
0.0000000000 0.3758098185 0.6739431024
0.0000000000 0.4995219409 0.6479525566
0.0000000000 0.2176316828 0.6819178462
0.0000000000 0.5043232441 0.7351961732
0.0000000000 0.6084886193 0.1971413046
0.0000000000 0.5875679851 0.5440517664
0.0000000000 0.3231721222 0.1323501915
0.0000000000 0.1612309217 0.7895315886
0.0000000000 0.1794502586 0.4996266663
0.0000000000 0.3708061576 0.6059321761
0.0000000000 0.5411375761 0.5235224366
0.0000000000 0.6380424500 0.4111080170
0.0000000000 0.4200835228 0.1276128143
0.0000000000 0.1559375823 0.3006910980
0.0000000000 0.3604663610 0.2303376496
0.0000000000 0.2628433704 0.5942538381
0.0000000000 0.2274785489 0.1989002675
0.0000000000 0.1900323182 0.4116008580
0.0000000000 0.1025777236 0.3025267124
0.0000000000 0.5934761167 0.5898534656
0.0000000000 0.4925314188 0.4572454989
0.0000000000 0.4239820242 0.6307365894
0.0000000000 0.0369610749 0.6630117893
0.0000000000 0.1585601866 0.9610232115
0.0000000000 0.2073197812 0.9493004084
0.0000000000 0.0831067562 0.2127943784
0.0000000000 0.6322605014 0.4644218683
0.0000000000 0.6609641910 0.2360275686
0.0000000000 0.1919577569 0.3594681621
0.0000000000 0.2586277127 0.1436149627
0.0000000000 0.4800410867 0.3518279493
0.0000000000 0.2101605088 0.8841806650
0.0000000000 0.2313289046 1.0730370283
0.0000000000 0.6812669635 0.4362495244
0.0000000000 0.4043739438 0.7279760838
0.0000000000 0.4146058857 0.5440434217
0.0000000000 0.3763291240 0.8584424257
0.0000000000 0.4512290061 0.6919818521
0.0000000000 0.3632541001 0.5310126543
0.0000000000 0.0693776831 1.1908104420
0.0000000000 0.2241937518 1.0080693960
0.0000000000 0.0602449290 0.3754901588
0.0000000000 0.0582541935 0.1484993100
0.0000000000 0.2656213343 0.8057578802
0.0000000000 0.0775546506 1.0277733803
0.0000000000 0.0687371194 0.2569099069
0.0000000000 0.5557540655 0.6163259745
0.0000000000 0.6906350255 0.1816264093
0.0000000000 0.0864575878 0.8259446025
0.0000000000 0.0146073559 0.9357032180
0.0000000000 0.1572709382 0.2488397211
0.0000000000 0.4856484234 0.2154545635
0.0000000000 0.0361333154 0.2232912630
0.0000000000 0.0940710306 0.9316311479
0.0000000000 0.1505049169 1.1545195580
0.0000000000 0.9525743723 0.1736708134
0.0000000000 0.7580582500 0.2531559765
0.0000000000 0.1718136519 1.1051658392
0.0000000000 0.0984149799 0.6518373489
0.0000000000 0.2757278383 0.6619480252
0.0000000000 0.0607072972 0.4256956875
0.0000000000 0.8090366125 0.1465552002
0.0000000000 0.1702367514 0.8635812402
0.0000000000 0.6919498444 0.4954223633
0.0000000000 0.3274560869 0.4505920410
0.0000000000 0.0369746014 1.0061283112
0.0000000000 0.0566239208 0.8766255379
0.0000000000 0.6088976264 0.3289250731
0.0000000000 0.2082276493 0.5982272625
0.0000000000 0.2187002003 0.8392935395
0.0000000000 0.4922818542 0.5627099276
0.0000000000 0.4101195931 0.2302964330
0.0000000000 0.0682714581 0.5448788404
0.0000000000 0.0024186361 0.1605942547
0.0000000000 0.2542530894 0.7332754135
0.0000000000 0.3593841791 0.3408484161
0.0000000000 0.7569512725 0.1937548965
0.0000000000 0.3630947471 0.4122473598
0.0000000000 0.4903675616 0.1483691782
0.0000000000 0.5551666021 0.6606397033
0.0000000000 0.7844062448 0.3312800229
0.0000000000 0.4370912611 0.4096640050
0.0000000000 0.1731294096 0.7296301723
0.0000000000 0.0272290241 0.6087015271
0.0000000000 0.4426920414 0.4823759198
0.0000000000 0.4315914810 0.2762021124
0.0000000000 0.2115064263 0.4583617747
0.0000000000 0.8740997314 0.2533633113
0.0000000000 0.5850869417 0.1315869987
0.0000000000 0.3106469512 0.5713064075
0.0000000000 0.5711112022 0.4826977253
0.0000000000 0.1494947672 0.4592378139
0.0000000000 0.8525917530 0.1926071942
0.0122472281 0.6921042800 1.4289587736
0.0109654395 0.9067299962 1.4261940718
0.0105115771 0.6287591457 1.4251707792
0.0095237345 0.5165188313 1.4228540659
0.0082214270 0.8533017039 1.4195837975
0.0059921374 0.5583121777 1.4132355452
0.0057095103 0.4181331396 1.4123466015
0.0052510449 0.2408346981 1.4108459949
0.0045762556 0.7370338440 1.4085093737
0.0040759090 0.0855217502 1.4066555500
0.0032883333 0.9436395764 1.4034777880
0.0031615407 0.0266284384 1.4029350281
0.0021001997 0.4675551653 1.3978148699
0.0006808210 0.2871948779 1.3880264759
0.0005432695 0.7851765752 1.3866320848
0.0001017600 0.3692278564 1.3800152540
0.0000001878 0.6335476637 1.3750433922
0.0135406898 0.8030987382 1.4315835238
0.0201470982 0.3611738086 1.4430487156
0.0209341925 0.1624082476 1.4442461729
0.0242022555 0.1073161960 1.4489235878
0.0256366618 0.4680441022 1.4508405924
0.0288215782 0.0581467673 1.4548407793
0.0318091214 0.2751872838 1.4583091736
0.0340830088 0.4020037353 1.4607844353
0.0356459804 0.7783663869 1.4624108076
0.0390895009 0.7146854401 1.4657971859
0.0399130918 0.9600990415 1.4665695429
0.0424719043 0.5470905304 1.4688829184
0.0449586846 0.0044775079 1.4710121155
0.0466313958 0.8475311399 1.4723820686
0.0557834134 0.3120679855 1.4790855646
0.0584355257 0.4519209862 1.4808014631
0.0596555136 0.1277500093 1.4815589190
0.0655916631 0.4957295358 1.4849798679
0.0689271092 0.6527148485 1.4867163897
0.0710477456 0.3593820035 1.4877557755
0.0724960193 0.9913666844 1.4884383678
0.0748212561 0.1957884729 1.4894850254
0.0795485899 0.5520778894 1.4914432764
0.0809439719 0.7243339419 1.4919776917
0.0851733088 0.7961734533 1.4934843779
0.0862388834 0.6054328680 1.4938373566
0.1015933454 0.0850751325 1.4977879524
0.1030914634 0.8663601279 1.4980640411
0.1062276885 0.0284212250 1.4985812902
0.1082857028 0.9116683006 1.4988763332
0.1143339053 0.7617321014 1.4995435476
0.1158165038 0.6712091565 1.4996609688
0.1172812283 0.4868017435 1.4997609854
0.1235320866 0.2123184651 1.4999903440
5.3841381073 0.7034748793 1.5000000000
7.3235273361 0.8615232706 1.5000000000
5.4105515480 0.6663874388 1.5000000000
6.3960409164 0.7410982847 1.5000000000
3.8940210342 0.8133262992 1.5000000000
4.9026198387 0.4372150004 1.5000000000
7.2250614166 0.7533854842 1.5000000000
7.7944145203 0.3419582248 1.5000000000
4.8701906204 0.6863195300 1.5000000000
5.4271025658 0.9457762837 1.5000000000
2.8614320755 0.8071417809 1.5000000000
7.2126383781 0.2811348140 1.5000000000
7.7064557076 0.0509025082 1.5000000000
5.2663946152 0.9204923511 1.5000000000
7.8277850151 0.3730492890 1.5000000000
5.6311788559 0.9587930441 1.5000000000
7.5443496704 0.7857893109 1.5000000000
7.1804847717 0.5044425130 1.5000000000
6.7084307671 0.2312348187 1.5000000000
6.0649347305 0.3053516746 1.5000000000
2.8278810978 0.9323183298 1.5000000000
5.8325195312 0.4512377083 1.5000000000
6.1958980560 0.2335912287 1.5000000000
5.0496954918 0.7571594119 1.5000000000
6.3397984505 0.9812919497 1.5000000000
4.5789861679 0.5003612041 1.5000000000
3.7797403336 0.9450815320 1.5000000000
5.5230894089 0.7184733152 1.5000000000
4.1906623840 0.6068037152 1.5000000000
2.9238786697 0.9225092530 1.5000000000
6.4138555527 0.4963092804 1.5000000000
7.8451719284 0.6812121868 1.5000000000
2.4776864052 0.9086990356 1.5000000000
7.4872498512 0.5195825696 1.5000000000
7.5865850449 0.7008877993 1.5000000000
4.0760707855 0.7131910324 1.5000000000
5.5753731728 0.9843751788 1.5000000000
4.4545555115 0.7960405946 1.5000000000
6.3222985268 0.8748190999 1.5000000000
5.0571589470 0.4316245914 1.5000000000
2.2285275459 0.9239502549 1.5000000000
7.4451785088 0.4881027937 1.5000000000
3.4839293957 0.5912635326 1.5000000000
3.6551284790 0.7696944475 1.5000000000
5.0483632088 0.8203239441 1.5000000000
7.6329345703 0.8743715286 1.5000000000
5.9976196289 0.4665752351 1.5000000000
7.4332613945 0.1922896206 1.5000000000
7.5213685036 0.9437412620 1.5000000000
6.8210721016 0.7628667951 1.5000000000
5.3648452759 0.4804640710 1.5000000000
6.6169261932 0.2151824236 1.5000000000
2.2919044495 0.9095021486 1.5000000000
4.9279766083 0.5340456963 1.5000000000
5.5249528885 0.8377313614 1.5000000000
7.3771452904 0.0765054300 1.5000000000
4.8207674026 0.8963664770 1.5000000000
6.1922793388 0.5145611763 1.5000000000
5.7588734627 0.4602813125 1.5000000000
4.4575819969 0.8478690982 1.5000000000
6.8817200661 0.4697087407 1.5000000000
7.6217164993 0.9796032310 1.5000000000
6.5677609444 0.9590582848 1.5000000000
7.4079365730 0.1100583375 1.5000000000
6.2762818336 0.3999418616 1.5000000000
5.5363225937 0.7958781123 1.5000000000
3.1833572388 0.7171054482 1.5000000000
1.3514723778 0.9415827394 1.5000000000
3.6510124207 0.9771133065 1.5000000000
2.9647629261 0.8819441795 1.5000000000
7.6844902039 0.7436422110 1.5000000000
7.1256814003 0.4789551497 1.5000000000
7.4190597534 0.9019684792 1.5000000000
6.7937726974 0.8057289124 1.5000000000
5.4438905716 0.3159128129 1.5000000000
6.5794177055 0.3241999447 1.5000000000
5.2656035423 0.4423888028 1.5000000000
6.2790732384 0.5404369831 1.5000000000
6.0211133957 0.8014022708 1.5000000000
3.3414950371 0.7284896374 1.5000000000
3.7275202274 0.8638916016 1.5000000000
7.0643210411 0.8996592164 1.5000000000
4.2429385185 0.8731070161 1.5000000000
3.4132218361 0.7581393123 1.5000000000
7.4636673927 0.8680880070 1.5000000000
2.6670506001 0.8812270761 1.5000000000
5.7603368759 0.6050432920 1.5000000000
6.0023245811 0.5289105773 1.5000000000
4.7816367149 0.8006262779 1.5000000000
4.8133912086 0.8440783024 1.5000000000
5.9335551262 0.7402238250 1.5000000000
2.8828837872 0.9827473164 1.5000000000
3.2810142040 0.7533124089 1.5000000000
5.3106412888 0.4048583508 1.5000000000
4.3327455521 0.6684503555 1.5000000000
3.4068636894 0.9074710608 1.5000000000
4.0530791283 0.7697879672 1.5000000000
2.3723375797 0.7243434787 1.5000000000
7.0142674446 0.3620193899 1.5000000000
2.4937725067 0.8011285663 1.5000000000
7.1234455109 0.9067736864 1.5000000000
7.0902080536 0.6822767258 1.5000000000
5.5865459442 0.5932390690 1.5000000000
4.8242654800 0.7067844272 1.5000000000
5.9904928207 0.3348577321 1.5000000000
7.5195951462 0.6951611042 1.5000000000
7.6861133575 0.9622651935 1.5000000000
6.9965314865 0.4221739769 1.5000000000
2.3320283890 0.7530949116 1.5000000000
5.6165289879 0.3942309916 1.5000000000
1.6782952547 0.9824341536 1.5000000000
7.0253591537 0.6006163359 1.5000000000
7.5525760651 0.3320232630 1.5000000000
3.6522078514 0.5519841313 1.5000000000
5.7551555634 0.7495616078 1.5000000000
6.9656243324 0.7606548071 1.5000000000
6.2641143799 0.4877821207 1.5000000000
7.7181973457 0.6672891974 1.5000000000
4.7287387848 0.7768760920 1.5000000000
3.6288349628 0.9069855809 1.5000000000
3.7713258266 0.8146538138 1.5000000000
4.2497510910 0.5651037097 1.5000000000
5.8910932541 0.5197920799 1.5000000000
6.1210975647 0.3862241507 1.5000000000
3.7275223732 0.7213606834 1.5000000000
7.3122987747 0.2852959037 1.5000000000
3.6304388046 0.7286068797 1.5000000000
6.6790575981 0.5124812722 1.5000000000
4.8749532700 0.7709721923 1.5000000000
6.0635318756 0.3910533786 1.5000000000
5.3304543495 0.6658691764 1.5000000000
7.3658638000 0.6267787814 1.5000000000
3.2641482353 0.6823772192 1.5000000000
4.7777552605 0.6760287285 1.5000000000
4.3882880211 0.5197789073 1.5000000000
7.3013420105 0.2366540283 1.5000000000
1.5151799917 0.8555867672 1.5000000000
6.9843316078 0.5343799591 1.5000000000
5.1705083847 0.8027874231 1.5000000000
6.8513059616 0.6763937473 1.5000000000
5.7988357544 0.8123893738 1.5000000000
0.5492314696 0.9789484739 1.5000000000
7.5922851562 0.3031028509 1.5000000000
6.9084963799 0.1865170002 1.5000000000
6.6131091118 0.9424899220 1.5000000000
6.8200044632 0.4239728749 1.5000000000
4.6674275398 0.7911353707 1.5000000000
5.6452217102 0.5093324184 1.5000000000
2.7087154388 0.9159238338 1.5000000000
7.3045701981 0.5237371325 1.5000000000
7.0256433487 0.8687868118 1.5000000000
6.2771954536 0.6658600569 1.5000000000
6.4312872887 0.4285314679 1.5000000000
7.3629274368 0.3331388831 1.5000000000
4.4779410362 0.7202019691 1.5000000000
2.0515820980 0.7598489523 1.5000000000
7.8708472252 0.8171684146 1.5000000000
2.7304654121 0.7269695997 1.5000000000
4.6940979958 0.5094131231 1.5000000000
2.8335967064 0.9887837172 1.5000000000
3.4864237309 0.9278423786 1.5000000000
7.6776757240 0.4449263811 1.5000000000
7.2199649811 0.8055264950 1.5000000000
4.1868185997 0.8593281507 1.5000000000
6.7416672707 0.8231310248 1.5000000000
5.1997265816 0.7371078730 1.5000000000
2.1823763847 0.8101163507 1.5000000000
2.3418850899 0.9278017282 1.5000000000
5.2823266983 0.5797423124 1.5000000000
7.4322543144 0.3031671345 1.5000000000
6.9335265160 0.4045750499 1.5000000000
3.9173791409 0.6347658038 1.5000000000
2.2598946095 0.8457478881 1.5000000000
5.4881739616 0.4541871250 1.5000000000
4.7489333153 0.4297223687 1.5000000000
5.9115738869 0.3932055831 1.5000000000
7.7904362679 0.2964321375 1.5000000000
5.3378810883 0.5874032378 1.5000000000
7.0656552315 0.7563141584 1.5000000000
2.2902655602 0.7846177816 1.5000000000
3.5419654846 0.8576922417 1.5000000000
4.3127641678 0.4623237550 1.5000000000
0.4433729947 0.9830223918 1.5000000000
7.5862345695 0.9313663244 1.5000000000
5.2568635941 0.5152825117 1.5000000000
5.8128495216 0.3998911083 1.5000000000
1.6256831884 0.9200645685 1.5000000000
6.5058431625 0.4046115279 1.5000000000
6.3323755264 0.6414816380 1.5000000000
5.8241672516 0.5335078835 1.5000000000
6.4166126251 0.2311787307 1.5000000000
3.8348834515 0.9339820147 1.5000000000
2.0748825073 0.8425914645 1.5000000000
7.7944555283 0.5581846237 1.5000000000
4.3089694977 0.5528584719 1.5000000000
2.9441580772 0.6371865273 1.5000000000
5.1765303612 0.6851463914 1.5000000000
7.0756936073 0.3571461439 1.5000000000
5.2937846184 0.9590510130 1.5000000000
2.6620731354 0.9951409101 1.5000000000
6.4718203545 0.6640341878 1.5000000000
2.5432481766 0.7064259052 1.5000000000
6.1227211952 0.2362389416 1.5000000000
7.2578921318 0.4891245365 1.5000000000
7.7799911499 0.6729397774 1.5000000000
4.8650627136 0.4895106256 1.5000000000
4.1100211143 0.7674075365 1.5000000000
4.1126194000 0.8103418350 1.5000000000
6.9246096611 0.5042212605 1.5000000000
6.9428949356 0.2957527637 1.5000000000
5.0598392487 0.5796348453 1.5000000000
7.1378846169 0.7308970690 1.5000000000
2.1702284813 0.8980961442 1.5000000000
1.9683588743 0.9252537489 1.5000000000
7.5679817200 0.5978276134 1.5000000000
4.1487793922 0.5637391806 1.5000000000
5.5080218315 0.9022007585 1.5000000000
4.3160934448 0.9905822873 1.5000000000
4.3991937637 0.9105657935 1.5000000000
4.1312665939 0.4865030050 1.5000000000
7.0130562782 0.1287805736 1.5000000000
5.5942635536 0.7195385098 1.5000000000
4.5969161987 0.4306332171 1.5000000000
4.4811568260 0.9026162028 1.5000000000
4.6391720772 0.4854272604 1.5000000000
7.2090487480 0.6644926667 1.5000000000
2.8832030296 0.8793821931 1.5000000000
7.7649936676 0.5139628649 1.5000000000
7.4572410583 0.0801690370 1.5000000000
4.9694943428 0.5788964033 1.5000000000
6.6640076637 0.5774567127 1.5000000000
3.2007005215 0.9558128715 1.5000000000
4.6224427223 0.9259507060 1.5000000000
1.4925074577 0.8964941502 1.5000000000
5.1969513893 0.8929447532 1.5000000000
4.0388998985 0.5517925620 1.5000000000
6.2759895325 0.8634641171 1.5000000000
5.6810283661 0.3728885353 1.5000000000
5.6740040779 0.7634853125 1.5000000000
6.0908675194 0.3479705751 1.5000000000
6.8183493614 0.4718321562 1.5000000000
6.7156848907 0.9095062613 1.5000000000
4.3671445847 0.7406796813 1.5000000000
5.7332887650 0.3589876890 1.5000000000
7.0609560013 0.3066724837 1.5000000000
0.2727384865 0.9888511300 1.5000000000
7.3272662163 0.7065232992 1.5000000000
4.5938367844 0.8169823885 1.5000000000
6.2160420418 0.3815113902 1.5000000000
3.6993770599 0.9337224364 1.5000000000
7.4522438049 0.5933629870 1.5000000000
6.5406026840 0.8260200620 1.5000000000
6.8768029213 0.8097640872 1.5000000000
7.0327911377 0.1990091950 1.5000000000
6.2179470062 0.7446961403 1.5000000000
5.9768233299 0.8889615536 1.5000000000
7.4305586815 0.5426331162 1.5000000000
3.7747526169 0.7426921725 1.5000000000
4.2367143631 0.7467652559 1.5000000000
6.1192126274 0.6459518075 1.5000000000
6.4729037285 0.9300744534 1.5000000000
7.6351957321 0.5583443046 1.5000000000
0.7565999627 0.9497610331 1.5000000000
4.2701621056 0.9508440495 1.5000000000
1.9177464247 0.9378112555 1.5000000000
7.3854818344 0.5363914371 1.5000000000
2.1362724304 0.8532973528 1.5000000000
6.1560921669 0.8095841408 1.5000000000
7.3209476471 0.7503492832 1.5000000000
6.0343976021 0.5809330344 1.5000000000
7.5183329582 0.6346113682 1.5000000000
6.3582668304 0.4388139248 1.5000000000
6.9511585236 0.9072641730 1.5000000000
6.9800505638 0.5847372413 1.5000000000
4.7383494377 0.5818418860 1.5000000000
7.7105588913 0.5889057517 1.5000000000
4.9148468971 0.8685520291 1.5000000000
6.1462883949 0.6822576523 1.5000000000
5.7524995804 0.8501216173 1.5000000000
5.8049478531 0.3419258893 1.5000000000
2.4851109982 0.7397993207 1.5000000000
6.7567858696 0.1907360554 1.5000000000
7.2736902237 0.4060518742 1.5000000000
6.6608161926 0.4610340297 1.5000000000
4.9128561020 0.9224746823 1.5000000000
5.5382637978 0.6714387536 1.5000000000
7.3746361732 0.9991592169 1.5000000000
6.4829845428 0.2138229758 1.5000000000
5.1799998283 0.9874550700 1.5000000000
5.7076807022 0.5274202824 1.5000000000
4.6468029022 0.7022984028 1.5000000000
6.5710201263 0.2283027619 1.5000000000
7.5032916069 0.7501220703 1.5000000000
7.7010354996 0.1322948933 1.5000000000
6.7383894920 0.2658392787 1.5000000000
7.1860675812 0.1481751651 1.5000000000
4.3910636902 0.4593816698 1.5000000000
7.7986984253 0.4211041331 1.5000000000
7.7449312210 0.3936539888 1.5000000000
3.0492167473 0.7153223753 1.5000000000
3.9758996964 0.5456376672 1.5000000000
7.6481461525 0.7923920155 1.5000000000
3.0060393810 0.6807510257 1.5000000000
7.8640170097 0.1269775927 1.5000000000
4.6013488770 0.7506822944 1.5000000000
5.0268292427 0.5308547616 1.5000000000
5.6909017563 0.8593987823 1.5000000000
3.5280845165 0.7472706437 1.5000000000
3.3002507687 0.6200448275 1.5000000000
3.2843165398 0.8990642428 1.5000000000
6.0782270432 0.4496335685 1.5000000000
4.1225404739 0.8953566551 1.5000000000
7.8108091354 0.0641044527 1.5000000000
4.6548638344 0.7453743815 1.5000000000
7.4281578064 0.7211956978 1.5000000000
3.8381035328 0.7844147682 1.5000000000
5.6559963226 0.8299434781 1.5000000000
7.7424135208 0.7289258242 1.5000000000
2.3868300915 0.8077520132 1.5000000000
5.0442147255 0.6300662160 1.5000000000
6.5117621422 0.2639283240 1.5000000000
2.0748383999 0.8988085985 1.5000000000
6.2740087509 0.7163884640 1.5000000000
5.4580078125 0.6470694542 1.5000000000
4.9751234055 0.5209281445 1.5000000000
3.2431709766 0.6137779355 1.5000000000
6.7637691498 0.6624886394 1.5000000000
2.6597068310 0.9251793027 1.5000000000
4.2536735535 0.5115425587 1.5000000000
3.2377643585 0.9331037402 1.5000000000
5.0837240219 0.6602930427 1.5000000000
2.6144974232 0.9888235927 1.5000000000
6.0958361626 0.8512136340 1.5000000000
4.1174788475 0.6305062771 1.5000000000
7.8167061806 0.8038916588 1.5000000000
2.9354467392 0.8191050887 1.5000000000
4.2043399811 0.7905711532 1.5000000000
6.3514900208 0.7450981140 1.5000000000
4.4540076256 0.5043122768 1.5000000000
1.7779011726 0.8625872135 1.5000000000
4.0469455719 0.8747805357 1.5000000000
7.5841412544 0.4019217789 1.5000000000
6.7654776573 0.4251892865 1.5000000000
1.4417437315 0.9187271595 1.5000000000
3.1149501801 0.6382412910 1.5000000000
5.7147259712 0.7829225659 1.5000000000
6.8403291702 0.3566282392 1.5000000000
3.5909659863 0.8809574246 1.5000000000
2.8278985023 0.8338772058 1.5000000000
5.3441243172 0.8281612992 1.5000000000
6.5523877144 0.6092946529 1.5000000000
4.8786730766 0.5959949493 1.5000000000
6.8623261452 0.1924963742 1.5000000000
6.0052037239 0.9521068931 1.5000000000
7.1689872742 0.1922745705 1.5000000000
7.2389478683 0.4446097612 1.5000000000
2.7278344631 0.7900186181 1.5000000000
3.9988570213 0.7121323943 1.5000000000
3.8048665524 0.5351989269 1.5000000000
5.9789762497 0.7817965746 1.5000000000
7.6802053452 0.6394929886 1.5000000000
5.3616418839 0.3273819983 1.5000000000
2.7442996502 0.8622151613 1.5000000000
5.4093027115 0.8390706778 1.5000000000
4.8025531769 0.9532708526 1.5000000000
6.5547285080 0.5637987256 1.5000000000
7.8575706482 0.4409799576 1.5000000000
3.9798469543 0.9602499008 1.5000000000
6.9544992447 0.9551258087 1.5000000000
3.5324907303 0.5713484287 1.5000000000
5.7049818039 0.4277958274 1.5000000000
6.8638877869 0.6055318713 1.5000000000
5.2341680527 0.6080704331 1.5000000000
7.6767983437 0.9151947498 1.5000000000
7.5135951042 0.8469918370 1.5000000000
6.3073716164 0.2289526612 1.5000000000
6.9878497124 0.6663199067 1.5000000000
6.8212819099 0.1414836645 1.5000000000
7.5441403389 0.1693079472 1.5000000000
4.6269283295 0.8568404317 1.5000000000
4.1128945351 0.9407667518 1.5000000000
7.5262136459 0.4441026747 1.5000000000
5.8671855927 0.9285246730 1.5000000000
6.4634423256 0.3504532874 1.5000000000
6.4237847328 0.3308765590 1.5000000000
5.1328554153 0.4476453364 1.5000000000
1.9316579103 0.7719923258 1.5000000000
3.8007888794 0.5961526036 1.5000000000
5.1300268173 0.6806300879 1.5000000000
6.3660588264 0.5488895774 1.5000000000
1.6741828918 0.9184395671 1.5000000000
3.9736335278 0.6577633619 1.5000000000
7.8246359825 0.1763427705 1.5000000000
4.8277921677 0.6228928566 1.5000000000
3.4262645245 0.6882249713 1.5000000000
6.2692036629 0.7706338763 1.5000000000
7.8031539917 0.8601683974 1.5000000000
5.8794188499 0.3061206639 1.5000000000
4.1636390686 0.8134962916 1.5000000000
4.0583252907 0.9456285238 1.5000000000
1.4326083660 0.9737845659 1.5000000000
4.8379821777 0.9940230846 1.5000000000
2.4822113514 0.9538217187 1.5000000000
4.4384202957 0.5796369314 1.5000000000
7.2547616959 0.2337586582 1.5000000000
4.3578281403 0.5614438057 1.5000000000
7.6958532333 0.8559951186 1.5000000000
4.4931921959 0.6175678968 1.5000000000
6.7206544876 0.4036953449 1.5000000000
5.2553024292 0.7088456154 1.5000000000
3.5505220890 0.9457481503 1.5000000000
6.6051716805 0.5143544078 1.5000000000
4.7566251755 0.7345916033 1.5000000000
6.2281298637 0.4310205877 1.5000000000
4.9500422478 0.9540072083 1.5000000000
6.4729781151 0.4842919409 1.5000000000
2.5372135639 0.8702183962 1.5000000000
4.6717085838 0.8811965585 1.5000000000
6.6194553375 0.3614380360 1.5000000000
4.7699866295 0.5425632596 1.5000000000
3.7913634777 0.6447427869 1.5000000000
1.6621692181 0.8731330037 1.5000000000
7.7803869247 0.0289793871 1.5000000000
6.7145929337 0.6065192819 1.5000000000
7.1329784393 0.5381478667 1.5000000000
7.0215802193 0.7252926230 1.5000000000
6.6285133362 0.6855596900 1.5000000000
6.8430352211 0.2953130901 1.5000000000
5.6215481758 0.9095386863 1.5000000000
3.8303692341 0.7305469513 1.5000000000
1.2680698633 0.8646103740 1.5000000000
4.7244305611 0.8781027198 1.5000000000
5.8896365166 0.5693297982 1.5000000000
2.0092918873 0.8971419334 1.5000000000
7.3505077362 0.1719507426 1.5000000000
6.6873474121 0.9497947097 1.5000000000
7.2579483986 0.8672715425 1.5000000000
7.1302571297 0.4145189524 1.5000000000
4.9081382751 0.7364906669 1.5000000000
6.5080108643 0.6320868731 1.5000000000
3.0395345688 0.9177399874 1.5000000000
5.5020141602 0.6161412597 1.5000000000
4.7508845329 0.8378540277 1.5000000000
4.4091062546 0.6646611094 1.5000000000
4.3419094086 0.7936621308 1.5000000000
6.8472328186 0.9556211829 1.5000000000
4.4304480553 0.9663435221 1.5000000000
5.5744605064 0.9027690887 1.5000000000
7.1798310280 0.4200142622 1.5000000000
4.2053937912 0.9023091197 1.5000000000
5.5254240036 0.5037258863 1.5000000000
7.0784602165 0.4882876277 1.5000000000
3.6100676060 0.6347953081 1.5000000000
6.9574670792 0.4724529088 1.5000000000
5.7521939278 0.5594761968 1.5000000000
2.4335002899 0.7545872331 1.5000000000
3.4779725075 0.7804045677 1.5000000000
6.4777088165 0.5339024067 1.5000000000
6.7645106316 0.9605389237 1.5000000000
1.7351374626 0.8961521387 1.5000000000
7.7509708405 0.8835753202 1.5000000000
6.4190750122 0.7922129035 1.5000000000
5.9350624084 0.3455036879 1.5000000000
7.3287930489 0.9802808762 1.5000000000
5.6963548660 0.3252874315 1.5000000000
7.7280988693 0.2506480813 1.5000000000
4.9538669586 0.6974695921 1.5000000000
2.4160311222 0.9044663906 1.5000000000
7.8634734154 0.3065702021 1.5000000000
1.5297409296 0.9552866220 1.5000000000
6.7149562836 0.5525346398 1.5000000000
7.8747725487 0.6446306109 1.5000000000
2.2682073116 0.9626650810 1.5000000000
6.1268072128 0.4857542217 1.5000000000
6.0900282860 0.7833549380 1.5000000000
4.5370039940 0.8913637996 1.5000000000
5.8703265190 0.8167734146 1.5000000000
7.3665132523 0.9352114201 1.5000000000
6.2057795525 0.8540596366 1.5000000000
3.6240587234 0.5887625813 1.5000000000
3.2944631577 0.8302108049 1.5000000000
4.5282263756 0.9634929299 1.5000000000
3.0987267494 0.7054286003 1.5000000000
5.8895487785 0.2628337145 1.5000000000
6.6942930222 0.7093508840 1.5000000000
6.6637482643 0.2298106998 1.5000000000
6.4005055428 0.6048085690 1.5000000000
4.3524932861 0.8812174797 1.5000000000
5.6068224907 0.8295698166 1.5000000000
6.6318902969 0.8852729201 1.5000000000
5.3081016541 0.3464300632 1.5000000000
4.0844631195 0.5834779143 1.5000000000
6.3087272644 0.4730002284 1.5000000000
6.4759950638 0.7720113397 1.5000000000
5.9347023964 0.4903510511 1.5000000000
7.1941370964 0.8527832627 1.5000000000
6.2013998032 0.9714435339 1.5000000000
1.5626548529 0.9963766932 1.5000000000
3.1421554089 0.6954264641 1.5000000000
5.0095095634 0.6800264120 1.5000000000
7.1008234024 0.1068752185 1.5000000000
6.5900797844 0.4097967148 1.5000000000
7.0108718872 0.3165303171 1.5000000000
7.6098728180 0.0542314686 1.5000000000
7.7921047211 0.2483809590 1.5000000000
7.3814916611 0.8659298420 1.5000000000
4.6182475090 0.5560404658 1.5000000000
6.5877962112 0.8599676490 1.5000000000
5.3648295403 0.9521573782 1.5000000000
4.4836735725 0.5609009862 1.5000000000
7.5436458588 0.3860443532 1.5000000000
5.2772974968 0.8417930603 1.5000000000
4.1957654953 0.7187358737 1.5000000000
4.6761097908 0.4352771342 1.5000000000
5.9256677628 0.9188680053 1.5000000000
4.9847207069 0.7935816646 1.5000000000
5.8248362541 0.3041032553 1.5000000000
6.7332887650 0.7701486349 1.5000000000
3.6737718582 0.8775635362 1.5000000000
4.5950236320 0.6768811345 1.5000000000
3.9076559544 0.9517890215 1.5000000000
6.0224685669 0.4286539853 1.5000000000
6.3810253143 0.3765715659 1.5000000000
1.2207463980 0.9912654161 1.5000000000
5.0232787132 0.9116954207 1.5000000000
3.2226946354 0.8568531871 1.5000000000
7.5260820389 0.5758687258 1.5000000000
6.2081971169 0.7961971760 1.5000000000
1.8393871784 0.9206866026 1.5000000000
5.3202795982 0.7108725905 1.5000000000
7.2996320724 0.1374130994 1.5000000000
1.9372700453 0.8524830937 1.5000000000
3.3614058495 0.8395843506 1.5000000000
5.1906824112 0.5466564298 1.5000000000
2.5839867592 0.7661350965 1.5000000000
6.9118690491 0.5503139496 1.5000000000
3.7861590385 0.9912112355 1.5000000000
4.1713843346 0.9350878000 1.5000000000
3.0742745399 0.8578404784 1.5000000000
7.6174273491 0.3423919976 1.5000000000
7.3501772881 0.3875429332 1.5000000000
6.8989105225 0.7526780963 1.5000000000
7.0370779037 0.2627998292 1.5000000000
5.9138669968 0.7923637629 1.5000000000
5.6802196503 0.9760006070 1.5000000000
7.2545580864 0.6012921333 1.5000000000
0.3826969564 0.9842024446 1.5000000000
0.9851758480 0.9191758633 1.5000000000
4.8802013397 0.8368563652 1.5000000000
7.7978162766 0.9891055822 1.5000000000
4.3956131935 0.6053435802 1.5000000000
5.7898545265 0.9449059963 1.5000000000
6.1561064720 0.9177992940 1.5000000000
7.2715134621 0.9241226912 1.5000000000
5.7088317871 0.4782543778 1.5000000000
6.2583608627 0.2739107907 1.5000000000
7.0229554176 0.9501056075 1.5000000000
7.1366863251 0.3717508912 1.5000000000
0.7103464007 0.9785708785 1.5000000000
7.3295445442 0.5653670430 1.5000000000
7.3947911263 0.4455143213 1.5000000000
3.8476297855 0.5602439046 1.5000000000
2.4128403664 0.9818960428 1.5000000000
1.1533222198 0.9403983951 1.5000000000
1.2202469110 0.8692343235 1.5000000000
6.6754236221 0.3786414862 1.5000000000
6.9380378723 0.8530113101 1.5000000000
6.1477937698 0.4234768152 1.5000000000
2.2350552082 0.9980475307 1.5000000000
6.1009368896 0.6983307004 1.5000000000
7.6474571228 0.4801906645 1.5000000000
5.8501091003 0.6746061444 1.5000000000
6.0108084679 0.6906467080 1.5000000000
5.1424045563 0.5416027308 1.5000000000
7.1422758102 0.8480238914 1.5000000000
5.9951186180 0.3878751397 1.5000000000
5.4534921646 0.7468581200 1.5000000000
4.3089618683 0.8299004436 1.5000000000
4.2540340424 0.8263942599 1.5000000000
1.3322099447 0.8590555191 1.5000000000
5.9087162018 0.8686999083 1.5000000000
4.9738316536 0.9040180445 1.5000000000
4.2099485397 0.6634238362 1.5000000000
1.4613120556 0.8433223367 1.5000000000
7.3806715012 0.7934450507 1.5000000000
1.9672173262 0.9823554754 1.5000000000
4.7222614288 0.4671457112 1.5000000000
7.2793149948 0.7118232846 1.5000000000
5.9303965569 0.5404905677 1.5000000000
4.5472164154 0.7151927948 1.5000000000
6.7554574013 0.3689506650 1.5000000000
6.0769481659 0.5529157519 1.5000000000
7.4810967445 0.9213461280 1.5000000000
5.1547622681 0.8688541651 1.5000000000
2.8291635513 0.6894726157 1.5000000000
5.8199806213 0.8835063577 1.5000000000
6.1996212006 0.9068374634 1.5000000000
2.0052814484 0.8210663199 1.5000000000
7.4137530327 0.3675717711 1.5000000000
7.2279529572 0.9555575848 1.5000000000
4.9802484512 0.4634417295 1.5000000000
7.1758942604 0.7996788621 1.5000000000
2.5480558872 0.9370559454 1.5000000000
7.0892281532 0.1591824144 1.5000000000
